ncols         416
nrows         30
xllcorner     562253.635152
yllcorner     6985405.48132
cellsize      19.400300
NODATA_value  -9999.000000
-66.000	-65.500	-65.000	-64.500	-64.000	-63.500	-63.000	-62.500	-62.000	-61.500	-61.000	-60.500	-60.000	-59.500	-59.000	-58.500	-59.000	-59.000	-58.500	-58.500	-58.000	-58.000	-57.500	-57.500	-57.000	-56.500	-56.500	-56.000	-56.000	-56.000	-56.500	-57.000	-57.500	-57.500	-58.000	-58.500	-59.000	-59.500	-60.000	-60.000	-60.500	-61.000	-61.500	-62.000	-62.500	-62.500	-63.000	-63.500	-63.500	-63.500	-63.500	-63.500	-63.000	-63.000	-62.500	-62.500	-62.500	-62.000	-62.000	-62.000	-61.500	-61.500	-61.500	-61.500	-61.500	-61.500	-61.500	-61.000	-61.000	-61.000	-61.000	-61.000	-61.000	-61.000	-60.500	-60.000	-60.000	-60.000	-60.000	-60.000	-59.500	-59.500	-59.500	-59.500	-59.500	-59.500	-59.000	-59.000	-59.000	-58.500	-58.500	-58.000	-57.500	-57.500	-57.000	-56.500	-56.500	-56.000	-55.500	-55.000	-54.500	-54.500	-54.000	-53.500	-53.000	-53.000	-52.500	-52.500	-52.000	-52.000	-51.500	-51.500	-51.000	-51.000	-50.500	-50.500	-50.000	-50.000	-49.500	-49.500	-49.000	-49.000	-48.500	-48.000	-48.000	-47.500	-47.500	-47.000	-47.000	-46.500	-46.500	-46.000	-46.000	-45.500	-45.500	-45.000	-45.000	-44.500	-44.500	-44.000	-44.000	-44.000	-43.500	-43.500	-43.000	-43.000	-42.500	-42.500	-42.000	-41.500	-41.000	-41.000	-40.500	-40.500	-40.000	-40.000	-39.500	-39.500	-39.000	-39.000	-39.000	-38.500	-38.500	-38.000	-38.000	-37.500	-37.000	-37.000	-36.500	-36.500	-36.000	-36.000	-35.500	-35.500	-35.000	-35.000	-34.500	-34.500	-34.000	-33.500	-33.500	-33.000	-32.500	-32.500	-32.000	-32.000	-31.500	-31.500	-31.000	-30.500	-30.000	-30.000	-30.000	-29.500	-29.500	-29.000	-28.500	-28.500	-28.000	-27.500	-27.500	-27.000	-26.500	-26.500	-26.000	-25.500	-25.500	-25.000	-24.500	-24.000	-24.000	-23.500	-23.000	-22.500	-22.000	-22.000	-21.500	-21.500	-21.500	-21.000	-21.000	-20.500	-20.000	-20.000	-19.500	-19.000	-18.500	-18.000	-17.500	-17.000	-17.000	-16.500	-16.500	-16.500	-16.000	-16.000	-15.500	-15.500	-15.500	-15.000	-14.500	-14.500	-14.000	-13.500	-13.500	-13.000	-12.500	-12.500	-12.000	-12.000	-11.500	-11.000	-10.500	-10.500	-10.000	-10.000	-9.500	-9.500	-9.000	-9.000	-9.000	-8.500	-8.500	-8.000	-8.000	-7.500	-7.500	-7.500	-7.000	-7.000	-6.500	-6.500	-6.500	-6.000	-6.000	-6.000	-6.000	-5.500	-5.500	-5.500	-5.000	-5.000	-5.000	-4.500	-4.500	-4.000	-4.000	-3.500	-3.500	-3.500	-3.000	-3.000	-3.000	-2.500	-2.500	-2.500	-2.500	-2.500	-2.500	-2.500	-2.500	-2.000	-2.000	-2.000	-2.000	-2.000	-1.500	-1.500	-1.500	-1.000	-1.000	-0.500	-0.500	0.000	0.000	0.500	0.500	1.000	1.500	1.500	2.000	2.000	8.000	8.000	8.000	8.000	8.000	8.000	18.000	17.000	22.000	25.000	26.000	27.000	30.000	33.000	34.000	36.000	37.000	39.000	43.000	44.000	44.000	45.000	48.000	52.000	53.000	55.000	57.000	59.000	62.000	62.000	62.000	62.000	63.000	62.000	62.000	63.000	63.000	63.000	63.000	64.000	64.000	64.000	64.000	64.000	65.000	65.000	66.000	66.000	66.000	66.000	66.000	66.000	66.000	66.000	66.000	66.000	66.000	65.000	65.000	65.000	65.000	65.000	65.000	64.000	64.000	64.000	64.000	64.000	64.000	63.000	63.000	61.000	60.000	58.000	59.000	59.000	58.000	59.000	59.000	59.000	57.000	57.000	56.000	55.000	55.000	52.000	52.000	51.000	51.000	50.000	45.000	45.000	46.000	46.000
-65.500	-65.000	-64.500	-64.000	-63.500	-63.000	-62.500	-62.000	-61.500	-61.000	-60.500	-60.000	-59.500	-59.000	-58.500	-58.000	-58.500	-58.500	-58.000	-58.000	-57.500	-57.500	-57.000	-57.000	-56.500	-56.000	-56.000	-55.500	-55.500	-55.500	-56.000	-56.500	-57.000	-57.000	-57.500	-58.000	-58.500	-59.000	-59.500	-59.500	-60.000	-60.500	-61.000	-61.500	-62.000	-62.000	-62.500	-63.000	-63.000	-63.000	-63.000	-63.000	-62.500	-62.500	-62.000	-62.000	-62.000	-61.500	-61.500	-61.500	-61.000	-61.000	-61.000	-61.000	-61.000	-61.000	-61.000	-60.500	-60.500	-60.500	-60.500	-60.500	-60.500	-60.500	-60.000	-59.500	-59.500	-59.500	-59.500	-59.500	-59.000	-59.000	-59.000	-59.000	-59.000	-59.000	-58.500	-58.500	-58.500	-58.000	-58.000	-57.500	-57.000	-57.000	-56.500	-56.000	-56.000	-55.500	-55.000	-54.500	-54.000	-54.000	-53.500	-53.000	-52.500	-52.500	-52.000	-52.000	-51.500	-51.500	-51.000	-51.000	-50.500	-50.500	-50.000	-50.000	-49.500	-49.500	-49.000	-49.000	-48.500	-48.500	-48.000	-47.500	-47.500	-47.000	-47.000	-46.500	-46.500	-46.000	-46.000	-45.500	-45.500	-45.000	-45.000	-44.500	-44.500	-44.000	-44.000	-43.500	-43.500	-43.500	-43.000	-43.000	-42.500	-42.500	-42.000	-42.000	-41.500	-41.000	-40.500	-40.500	-40.000	-40.000	-39.500	-39.500	-39.000	-39.000	-38.500	-38.500	-38.500	-38.000	-38.000	-37.500	-37.500	-37.000	-36.500	-36.500	-36.000	-36.000	-35.500	-35.500	-35.000	-35.000	-34.500	-34.500	-34.000	-34.000	-33.500	-33.000	-33.000	-32.500	-32.000	-32.000	-31.500	-31.500	-31.000	-31.000	-30.500	-30.000	-29.500	-29.500	-29.500	-29.000	-29.000	-28.500	-28.000	-28.000	-27.500	-27.000	-27.000	-26.500	-26.000	-26.000	-25.500	-25.000	-25.000	-24.500	-24.000	-23.500	-23.500	-23.000	-22.500	-22.000	-21.500	-21.500	-21.000	-21.000	-21.000	-20.500	-20.500	-20.000	-19.500	-19.500	-19.000	-18.500	-18.000	-17.500	-17.000	-16.500	-16.500	-16.000	-16.000	-16.000	-15.500	-15.500	-15.000	-15.000	-15.000	-14.500	-14.000	-14.000	-13.500	-13.000	-13.000	-12.500	-12.000	-12.000	-11.500	-11.500	-11.000	-10.500	-10.000	-10.000	-9.500	-9.500	-9.000	-9.000	-8.500	-8.500	-8.500	-8.000	-8.000	-7.500	-7.500	-7.000	-7.000	-7.000	-6.500	-6.500	-6.000	-6.000	-6.000	-5.500	-5.500	-5.500	-5.500	-5.000	-5.000	-5.000	-4.500	-4.500	-4.500	-4.000	-4.000	-3.500	-3.500	-3.000	-3.000	-3.000	-2.500	-2.500	-2.500	-2.000	-2.000	-2.000	-2.000	-2.000	-2.000	-2.000	-2.000	-1.500	-1.500	-1.500	-1.500	-1.500	-1.000	-1.000	-1.000	-0.500	-0.500	0.000	0.000	0.500	0.500	1.000	1.000	1.500	2.000	2.000	8.000	8.000	8.000	7.000	8.000	8.000	8.000	17.000	17.000	19.000	23.000	24.000	25.000	27.000	28.000	32.000	33.000	33.000	35.000	36.000	40.000	41.000	43.000	43.000	46.000	50.000	51.000	53.000	56.000	56.000	59.000	61.000	61.000	62.000	62.000	63.000	63.000	63.000	63.000	64.000	64.000	64.000	64.000	64.000	64.000	65.000	65.000	65.000	66.000	66.000	66.000	66.000	66.000	66.000	66.000	66.000	66.000	66.000	66.000	66.000	66.000	66.000	65.000	65.000	65.000	65.000	65.000	65.000	64.000	64.000	64.000	64.000	63.000	62.000	60.000	60.000	60.000	61.000	60.000	60.000	61.000	61.000	59.000	58.000	58.000	57.000	57.000	54.000	54.000	53.000	53.000	51.000	48.000	47.000	47.000	47.000
-65.000	-64.500	-64.000	-63.500	-63.000	-62.500	-62.000	-61.500	-61.000	-60.500	-60.000	-59.500	-59.000	-58.500	-58.000	-57.500	-58.000	-58.000	-57.500	-57.500	-57.000	-57.000	-56.500	-56.500	-56.000	-55.500	-55.500	-55.000	-55.000	-55.000	-55.500	-56.000	-56.500	-56.500	-57.000	-57.500	-58.000	-58.500	-59.000	-59.000	-59.500	-60.000	-60.500	-61.000	-61.500	-61.500	-62.000	-62.500	-62.500	-62.500	-62.500	-62.500	-62.000	-62.000	-61.500	-61.500	-61.500	-61.000	-61.000	-61.000	-60.500	-60.500	-60.500	-60.500	-60.500	-60.500	-60.500	-60.000	-60.000	-60.000	-60.000	-60.000	-60.000	-60.000	-59.500	-59.000	-59.000	-59.000	-59.000	-59.000	-58.500	-58.500	-58.500	-58.500	-58.500	-58.500	-58.000	-58.000	-58.000	-57.500	-57.500	-57.000	-56.500	-56.500	-56.000	-55.500	-55.500	-55.000	-54.500	-54.000	-53.500	-53.500	-53.000	-52.500	-52.000	-52.000	-51.500	-51.500	-51.000	-51.000	-50.500	-50.500	-50.000	-50.000	-49.500	-49.500	-49.000	-49.000	-48.500	-48.500	-48.000	-48.000	-47.500	-47.000	-47.000	-46.500	-46.500	-46.000	-46.000	-45.500	-45.500	-45.000	-45.000	-44.500	-44.500	-44.000	-44.000	-43.500	-43.500	-43.000	-43.000	-43.000	-42.500	-42.500	-42.000	-42.000	-41.500	-41.500	-41.000	-40.500	-40.000	-40.000	-39.500	-39.500	-39.000	-39.000	-38.500	-38.500	-38.000	-38.000	-38.000	-37.500	-37.500	-37.000	-37.000	-36.500	-36.000	-36.000	-35.500	-35.500	-35.000	-35.000	-34.500	-34.500	-34.000	-34.000	-33.500	-33.500	-33.000	-32.500	-32.500	-32.000	-31.500	-31.500	-31.000	-31.000	-30.500	-30.500	-30.000	-29.500	-29.000	-29.000	-29.000	-28.500	-28.500	-28.000	-27.500	-27.500	-27.000	-26.500	-26.500	-26.000	-25.500	-25.500	-25.000	-24.500	-24.500	-24.000	-23.500	-23.000	-23.000	-22.500	-22.000	-21.500	-21.000	-21.000	-20.500	-20.500	-20.500	-20.000	-20.000	-19.500	-19.000	-19.000	-18.500	-18.000	-17.500	-17.000	-16.500	-16.000	-16.000	-15.500	-15.500	-15.500	-15.000	-15.000	-14.500	-14.500	-14.500	-14.000	-13.500	-13.500	-13.000	-12.500	-12.500	-12.000	-11.500	-11.500	-11.000	-11.000	-10.500	-10.000	-9.500	-9.500	-9.000	-9.000	-8.500	-8.500	-8.000	-8.000	-8.000	-7.500	-7.500	-7.000	-7.000	-6.500	-6.500	-6.500	-6.000	-6.000	-5.500	-5.500	-5.500	-5.000	-5.000	-5.000	-5.000	-4.500	-4.500	-4.500	-4.000	-4.000	-4.000	-3.500	-3.500	-3.000	-3.000	-2.500	-2.500	-2.500	-2.000	-2.000	-2.000	-1.500	-1.500	-1.500	-1.500	-1.500	-1.500	-1.500	-1.500	-1.000	-1.000	-1.000	-1.000	-1.000	-0.500	-0.500	-0.500	0.000	0.000	0.500	0.500	1.000	1.000	1.500	1.500	2.000	8.000	8.000	7.000	8.000	7.000	8.000	8.000	8.000	14.000	15.000	17.000	19.000	21.000	23.000	24.000	25.000	28.000	30.000	31.000	32.000	34.000	36.000	38.000	40.000	41.000	43.000	45.000	49.000	49.000	51.000	53.000	56.000	57.000	59.000	61.000	61.000	62.000	63.000	63.000	63.000	63.000	63.000	64.000	64.000	64.000	64.000	65.000	65.000	65.000	66.000	66.000	66.000	66.000	66.000	66.000	66.000	66.000	67.000	67.000	67.000	66.000	66.000	66.000	66.000	66.000	65.000	65.000	65.000	65.000	65.000	64.000	64.000	64.000	64.000	64.000	62.000	62.000	61.000	61.000	61.000	61.000	62.000	62.000	62.000	60.000	60.000	59.000	58.000	57.000	56.000	55.000	54.000	54.000	53.000	50.000	50.000	50.000	49.000
-64.500	-64.000	-63.500	-63.000	-62.500	-62.000	-61.500	-61.000	-60.500	-60.000	-59.500	-59.000	-58.500	-58.000	-57.500	-57.000	-57.500	-57.500	-57.000	-57.000	-56.500	-56.500	-56.000	-56.000	-55.500	-55.000	-55.000	-54.500	-54.500	-54.500	-55.000	-55.500	-56.000	-56.000	-56.500	-57.000	-57.500	-58.000	-58.500	-58.500	-59.000	-59.500	-60.000	-60.500	-61.000	-61.000	-61.500	-62.000	-62.000	-62.000	-62.000	-62.000	-61.500	-61.500	-61.000	-61.000	-61.000	-60.500	-60.500	-60.500	-60.000	-60.000	-60.000	-60.000	-60.000	-60.000	-60.000	-59.500	-59.500	-59.500	-59.500	-59.500	-59.500	-59.500	-59.000	-58.500	-58.500	-58.500	-58.500	-58.500	-58.000	-58.000	-58.000	-58.000	-58.000	-58.000	-57.500	-57.500	-57.500	-57.000	-57.000	-56.500	-56.000	-56.000	-55.500	-55.000	-55.000	-54.500	-54.000	-53.500	-53.000	-53.000	-52.500	-52.000	-51.500	-51.500	-51.000	-51.000	-50.500	-50.500	-50.000	-50.000	-49.500	-49.500	-49.000	-49.000	-48.500	-48.500	-48.000	-48.000	-47.500	-47.500	-47.000	-46.500	-46.500	-46.000	-46.000	-45.500	-45.500	-45.000	-45.000	-44.500	-44.500	-44.000	-44.000	-43.500	-43.500	-43.000	-43.000	-42.500	-42.500	-42.500	-42.000	-42.000	-41.500	-41.500	-41.000	-41.000	-40.500	-40.000	-39.500	-39.500	-39.000	-39.000	-38.500	-38.500	-38.000	-38.000	-37.500	-37.500	-37.500	-37.000	-37.000	-36.500	-36.500	-36.000	-35.500	-35.500	-35.000	-35.000	-34.500	-34.500	-34.000	-34.000	-33.500	-33.500	-33.000	-33.000	-32.500	-32.000	-32.000	-31.500	-31.000	-31.000	-30.500	-30.500	-30.000	-30.000	-29.500	-29.000	-28.500	-28.500	-28.500	-28.000	-28.000	-27.500	-27.000	-27.000	-26.500	-26.000	-26.000	-25.500	-25.000	-25.000	-24.500	-24.000	-24.000	-23.500	-23.000	-22.500	-22.500	-22.000	-21.500	-21.000	-20.500	-20.500	-20.000	-20.000	-20.000	-19.500	-19.500	-19.000	-18.500	-18.500	-18.000	-17.500	-17.000	-16.500	-16.000	-15.500	-15.500	-15.000	-15.000	-15.000	-14.500	-14.500	-14.000	-14.000	-14.000	-13.500	-13.000	-13.000	-12.500	-12.000	-12.000	-11.500	-11.000	-11.000	-10.500	-10.500	-10.000	-9.500	-9.000	-9.000	-8.500	-8.500	-8.000	-8.000	-7.500	-7.500	-7.500	-7.000	-7.000	-6.500	-6.500	-6.000	-6.000	-6.000	-5.500	-5.500	-5.000	-5.000	-5.000	-4.500	-4.500	-4.500	-4.500	-4.000	-4.000	-4.000	-3.500	-3.500	-3.500	-3.000	-3.000	-2.500	-2.500	-2.000	-2.000	-2.000	-1.500	-1.500	-1.500	-1.000	-1.000	-1.000	-1.000	-1.000	-1.000	-1.000	-1.000	-0.500	-0.500	-0.500	-0.500	-0.500	0.000	0.000	0.000	0.500	0.500	1.000	1.000	1.500	1.500	2.000	2.000	8.000	8.000	7.000	7.000	7.000	7.000	8.000	10.000	10.000	13.000	15.000	17.000	19.000	21.000	22.000	24.000	25.000	28.000	29.000	30.000	32.000	33.000	36.000	36.000	38.000	41.000	42.000	44.000	46.000	48.000	49.000	51.000	56.000	58.000	59.000	59.000	60.000	62.000	62.000	63.000	63.000	63.000	64.000	64.000	64.000	64.000	65.000	65.000	65.000	65.000	66.000	66.000	66.000	66.000	67.000	67.000	66.000	67.000	67.000	67.000	67.000	67.000	66.000	66.000	66.000	66.000	65.000	65.000	65.000	65.000	65.000	65.000	65.000	64.000	64.000	64.000	62.000	62.000	62.000	63.000	62.000	63.000	63.000	63.000	63.000	62.000	61.000	60.000	59.000	59.000	57.000	57.000	56.000	55.000	54.000	52.000	52.000	52.000	51.000
-64.000	-63.500	-63.000	-62.500	-62.000	-61.500	-61.000	-60.500	-60.000	-59.500	-59.000	-58.500	-58.000	-57.500	-57.000	-56.500	-57.000	-57.000	-56.500	-56.500	-56.000	-56.000	-55.500	-55.500	-55.000	-54.500	-54.500	-54.000	-54.000	-54.000	-54.500	-55.000	-55.500	-55.500	-56.000	-56.500	-57.000	-57.500	-58.000	-58.000	-58.500	-59.000	-59.500	-60.000	-60.500	-60.500	-61.000	-61.500	-61.500	-61.500	-61.500	-61.500	-61.000	-61.000	-60.500	-60.500	-60.500	-60.000	-60.000	-60.000	-59.500	-59.500	-59.500	-59.500	-59.500	-59.500	-59.500	-59.000	-59.000	-59.000	-59.000	-59.000	-59.000	-59.000	-58.500	-58.000	-58.000	-58.000	-58.000	-58.000	-57.500	-57.500	-57.500	-57.500	-57.500	-57.500	-57.000	-57.000	-57.000	-56.500	-56.500	-56.000	-55.500	-55.500	-55.000	-54.500	-54.500	-54.000	-53.500	-53.000	-52.500	-52.500	-52.000	-51.500	-51.000	-51.000	-50.500	-50.500	-50.000	-50.000	-49.500	-49.500	-49.000	-49.000	-48.500	-48.500	-48.000	-48.000	-47.500	-47.500	-47.000	-47.000	-46.500	-46.000	-46.000	-45.500	-45.500	-45.000	-45.000	-44.500	-44.500	-44.000	-44.000	-43.500	-43.500	-43.000	-43.000	-42.500	-42.500	-42.000	-42.000	-42.000	-41.500	-41.500	-41.000	-41.000	-40.500	-40.500	-40.000	-39.500	-39.000	-39.000	-38.500	-38.500	-38.000	-38.000	-37.500	-37.500	-37.000	-37.000	-37.000	-36.500	-36.500	-36.000	-36.000	-35.500	-35.000	-35.000	-34.500	-34.500	-34.000	-34.000	-33.500	-33.500	-33.000	-33.000	-32.500	-32.500	-32.000	-31.500	-31.500	-31.000	-30.500	-30.500	-30.000	-30.000	-29.500	-29.500	-29.000	-28.500	-28.000	-28.000	-28.000	-27.500	-27.500	-27.000	-26.500	-26.500	-26.000	-25.500	-25.500	-25.000	-24.500	-24.500	-24.000	-23.500	-23.500	-23.000	-22.500	-22.000	-22.000	-21.500	-21.000	-20.500	-20.000	-20.000	-19.500	-19.500	-19.500	-19.000	-19.000	-18.500	-18.000	-18.000	-17.500	-17.000	-16.500	-16.000	-15.500	-15.000	-15.000	-14.500	-14.500	-14.500	-14.000	-14.000	-13.500	-13.500	-13.500	-13.000	-12.500	-12.500	-12.000	-11.500	-11.500	-11.000	-10.500	-10.500	-10.000	-10.000	-9.500	-9.000	-8.500	-8.500	-8.000	-8.000	-7.500	-7.500	-7.000	-7.000	-7.000	-6.500	-6.500	-6.000	-6.000	-5.500	-5.500	-5.500	-5.000	-5.000	-4.500	-4.500	-4.500	-4.000	-4.000	-4.000	-4.000	-3.500	-3.500	-3.500	-3.000	-3.000	-3.000	-2.500	-2.500	-2.000	-2.000	-1.500	-1.500	-1.500	-1.000	-1.000	-1.000	-0.500	-0.500	-0.500	-0.500	-0.500	-0.500	-0.500	-0.500	0.000	0.000	0.000	0.000	0.000	0.500	0.500	0.500	1.000	1.000	1.500	1.500	2.000	2.000	7.000	8.000	7.000	7.000	7.000	7.000	7.000	7.000	8.000	9.000	11.000	12.000	15.000	17.000	20.000	21.000	22.000	24.000	26.000	28.000	29.000	31.000	32.000	33.000	37.000	36.000	38.000	40.000	41.000	44.000	46.000	48.000	49.000	52.000	54.000	55.000	57.000	59.000	60.000	62.000	62.000	63.000	63.000	64.000	64.000	64.000	65.000	65.000	65.000	65.000	65.000	66.000	66.000	66.000	66.000	66.000	67.000	67.000	67.000	67.000	67.000	67.000	67.000	67.000	67.000	67.000	66.000	66.000	66.000	65.000	65.000	65.000	65.000	65.000	65.000	65.000	65.000	64.000	63.000	63.000	63.000	63.000	63.000	64.000	63.000	64.000	64.000	62.000	62.000	61.000	60.000	58.000	58.000	57.000	57.000	56.000	56.000	53.000	53.000	53.000	52.000
-63.500	-63.000	-62.500	-62.000	-61.500	-61.000	-60.500	-60.000	-59.500	-59.000	-58.500	-58.000	-57.500	-57.000	-56.500	-56.000	-56.500	-56.500	-56.000	-56.000	-55.500	-55.500	-55.000	-55.000	-54.500	-54.000	-54.000	-53.500	-53.500	-53.500	-54.000	-54.500	-55.000	-55.000	-55.500	-56.000	-56.500	-57.000	-57.500	-57.500	-58.000	-58.500	-59.000	-59.500	-60.000	-60.000	-60.500	-61.000	-61.000	-61.000	-61.000	-61.000	-60.500	-60.500	-60.000	-60.000	-60.000	-59.500	-59.500	-59.500	-59.000	-59.000	-59.000	-59.000	-59.000	-59.000	-59.000	-58.500	-58.500	-58.500	-58.500	-58.500	-58.500	-58.500	-58.000	-57.500	-57.500	-57.500	-57.500	-57.500	-57.000	-57.000	-57.000	-57.000	-57.000	-57.000	-56.500	-56.500	-56.500	-56.000	-56.000	-55.500	-55.000	-55.000	-54.500	-54.000	-54.000	-53.500	-53.000	-52.500	-52.000	-52.000	-51.500	-51.000	-50.500	-50.500	-50.000	-50.000	-49.500	-49.500	-49.000	-49.000	-48.500	-48.500	-48.000	-48.000	-47.500	-47.500	-47.000	-47.000	-46.500	-46.500	-46.000	-45.500	-45.500	-45.000	-45.000	-44.500	-44.500	-44.000	-44.000	-43.500	-43.500	-43.000	-43.000	-42.500	-42.500	-42.000	-42.000	-41.500	-41.500	-41.500	-41.000	-41.000	-40.500	-40.500	-40.000	-40.000	-39.500	-39.000	-38.500	-38.500	-38.000	-38.000	-37.500	-37.500	-37.000	-37.000	-36.500	-36.500	-36.500	-36.000	-36.000	-35.500	-35.500	-35.000	-34.500	-34.500	-34.000	-34.000	-33.500	-33.500	-33.000	-33.000	-32.500	-32.500	-32.000	-32.000	-31.500	-31.000	-31.000	-30.500	-30.000	-30.000	-29.500	-29.500	-29.000	-29.000	-28.500	-28.000	-27.500	-27.500	-27.500	-27.000	-27.000	-26.500	-26.000	-26.000	-25.500	-25.000	-25.000	-24.500	-24.000	-24.000	-23.500	-23.000	-23.000	-22.500	-22.000	-21.500	-21.500	-21.000	-20.500	-20.000	-19.500	-19.500	-19.000	-19.000	-19.000	-18.500	-18.500	-18.000	-17.500	-17.500	-17.000	-16.500	-16.000	-15.500	-15.000	-14.500	-14.500	-14.000	-14.000	-14.000	-13.500	-13.500	-13.000	-13.000	-13.000	-12.500	-12.000	-12.000	-11.500	-11.000	-11.000	-10.500	-10.000	-10.000	-9.500	-9.500	-9.000	-8.500	-8.000	-8.000	-7.500	-7.500	-7.000	-7.000	-6.500	-6.500	-6.500	-6.000	-6.000	-5.500	-5.500	-5.000	-5.000	-5.000	-4.500	-4.500	-4.000	-4.000	-4.000	-3.500	-3.500	-3.500	-3.500	-3.000	-3.000	-3.000	-2.500	-2.500	-2.500	-2.000	-2.000	-1.500	-1.500	-1.000	-1.000	-1.000	-0.500	-0.500	-0.500	0.000	0.000	0.000	0.000	0.000	0.000	0.000	0.000	0.500	0.500	0.500	0.500	0.500	1.000	1.000	1.000	1.500	1.500	2.000	2.000	7.000	7.000	7.000	7.000	7.000	7.000	7.000	7.000	7.000	8.000	8.000	10.000	11.000	16.000	18.000	20.000	20.000	21.000	24.000	26.000	27.000	30.000	29.000	31.000	33.000	35.000	38.000	37.000	37.000	40.000	42.000	43.000	46.000	48.000	49.000	51.000	53.000	55.000	56.000	58.000	59.000	61.000	62.000	63.000	63.000	64.000	64.000	64.000	65.000	65.000	65.000	65.000	66.000	66.000	66.000	67.000	67.000	67.000	67.000	67.000	67.000	67.000	67.000	67.000	67.000	67.000	67.000	67.000	67.000	66.000	66.000	66.000	65.000	65.000	65.000	65.000	65.000	65.000	65.000	64.000	64.000	64.000	64.000	64.000	64.000	64.000	64.000	65.000	64.000	63.000	63.000	62.000	61.000	61.000	59.000	58.000	57.000	56.000	55.000	54.000	54.000	53.000	52.000
-63.000	-62.500	-62.000	-61.500	-61.000	-60.500	-60.000	-59.500	-59.000	-58.500	-58.000	-57.500	-57.000	-56.500	-56.000	-55.500	-56.000	-56.000	-55.500	-55.500	-55.000	-55.000	-54.500	-54.500	-54.000	-53.500	-53.500	-53.000	-53.000	-53.000	-53.500	-54.000	-54.500	-54.500	-55.000	-55.500	-56.000	-56.500	-57.000	-57.000	-57.500	-58.000	-58.500	-59.000	-59.500	-59.500	-60.000	-60.500	-60.500	-60.500	-60.500	-60.500	-60.000	-60.000	-59.500	-59.500	-59.500	-59.000	-59.000	-59.000	-58.500	-58.500	-58.500	-58.500	-58.500	-58.500	-58.500	-58.000	-58.000	-58.000	-58.000	-58.000	-58.000	-58.000	-57.500	-57.000	-57.000	-57.000	-57.000	-57.000	-56.500	-56.500	-56.500	-56.500	-56.500	-56.500	-56.000	-56.000	-56.000	-55.500	-55.500	-55.000	-54.500	-54.500	-54.000	-53.500	-53.500	-53.000	-52.500	-52.000	-51.500	-51.500	-51.000	-50.500	-50.000	-50.000	-49.500	-49.500	-49.000	-49.000	-48.500	-48.500	-48.000	-48.000	-47.500	-47.500	-47.000	-47.000	-46.500	-46.500	-46.000	-46.000	-45.500	-45.000	-45.000	-44.500	-44.500	-44.000	-44.000	-43.500	-43.500	-43.000	-43.000	-42.500	-42.500	-42.000	-42.000	-41.500	-41.500	-41.000	-41.000	-41.000	-40.500	-40.500	-40.000	-40.000	-39.500	-39.500	-39.000	-38.500	-38.000	-38.000	-37.500	-37.500	-37.000	-37.000	-36.500	-36.500	-36.000	-36.000	-36.000	-35.500	-35.500	-35.000	-35.000	-34.500	-34.000	-34.000	-33.500	-33.500	-33.000	-33.000	-32.500	-32.500	-32.000	-32.000	-31.500	-31.500	-31.000	-30.500	-30.500	-30.000	-29.500	-29.500	-29.000	-29.000	-28.500	-28.500	-28.000	-27.500	-27.000	-27.000	-27.000	-26.500	-26.500	-26.000	-25.500	-25.500	-25.000	-24.500	-24.500	-24.000	-23.500	-23.500	-23.000	-22.500	-22.500	-22.000	-21.500	-21.000	-21.000	-20.500	-20.000	-19.500	-19.000	-19.000	-18.500	-18.500	-18.500	-18.000	-18.000	-17.500	-17.000	-17.000	-16.500	-16.000	-15.500	-15.000	-14.500	-14.000	-14.000	-13.500	-13.500	-13.500	-13.000	-13.000	-12.500	-12.500	-12.500	-12.000	-11.500	-11.500	-11.000	-10.500	-10.500	-10.000	-9.500	-9.500	-9.000	-9.000	-8.500	-8.000	-7.500	-7.500	-7.000	-7.000	-6.500	-6.500	-6.000	-6.000	-6.000	-5.500	-5.500	-5.000	-5.000	-4.500	-4.500	-4.500	-4.000	-4.000	-3.500	-3.500	-3.500	-3.000	-3.000	-3.000	-3.000	-2.500	-2.500	-2.500	-2.000	-2.000	-2.000	-1.500	-1.500	-1.000	-1.000	-0.500	-0.500	-0.500	0.000	0.000	0.000	0.500	0.500	0.500	0.500	0.500	0.500	0.500	0.500	1.000	1.000	1.000	1.000	1.000	1.500	1.500	1.500	2.000	2.000	7.000	7.000	7.000	7.000	7.000	7.000	7.000	7.000	7.000	7.000	8.000	8.000	8.000	9.000	13.000	16.000	19.000	21.000	24.000	25.000	27.000	30.000	31.000	33.000	33.000	36.000	37.000	37.000	38.000	37.000	38.000	43.000	45.000	44.000	46.000	49.000	50.000	53.000	53.000	54.000	56.000	58.000	60.000	61.000	62.000	62.000	63.000	64.000	64.000	65.000	65.000	65.000	65.000	66.000	66.000	66.000	66.000	67.000	67.000	67.000	67.000	67.000	67.000	68.000	67.000	67.000	67.000	67.000	67.000	67.000	67.000	66.000	66.000	66.000	66.000	66.000	65.000	65.000	65.000	65.000	65.000	65.000	65.000	64.000	65.000	65.000	64.000	64.000	65.000	65.000	65.000	64.000	64.000	63.000	63.000	63.000	60.000	59.000	58.000	57.000	55.000	55.000	55.000	54.000	53.000
-62.500	-62.000	-61.500	-61.000	-60.500	-60.000	-59.500	-59.000	-58.500	-58.000	-57.500	-57.000	-56.500	-56.000	-55.500	-55.000	-55.500	-55.500	-55.000	-55.000	-54.500	-54.500	-54.000	-54.000	-53.500	-53.000	-53.000	-52.500	-52.500	-52.500	-53.000	-53.500	-54.000	-54.000	-54.500	-55.000	-55.500	-56.000	-56.500	-56.500	-57.000	-57.500	-58.000	-58.500	-59.000	-59.000	-59.500	-60.000	-60.000	-60.000	-60.000	-60.000	-59.500	-59.500	-59.000	-59.000	-59.000	-58.500	-58.500	-58.500	-58.000	-58.000	-58.000	-58.000	-58.000	-58.000	-58.000	-57.500	-57.500	-57.500	-57.500	-57.500	-57.500	-57.500	-57.000	-56.500	-56.500	-56.500	-56.500	-56.500	-56.000	-56.000	-56.000	-56.000	-56.000	-56.000	-55.500	-55.500	-55.500	-55.000	-55.000	-54.500	-54.000	-54.000	-53.500	-53.000	-53.000	-52.500	-52.000	-51.500	-51.000	-51.000	-50.500	-50.000	-49.500	-49.500	-49.000	-49.000	-48.500	-48.500	-48.000	-48.000	-47.500	-47.500	-47.000	-47.000	-46.500	-46.500	-46.000	-46.000	-45.500	-45.500	-45.000	-44.500	-44.500	-44.000	-44.000	-43.500	-43.500	-43.000	-43.000	-42.500	-42.500	-42.000	-42.000	-41.500	-41.500	-41.000	-41.000	-40.500	-40.500	-40.500	-40.000	-40.000	-39.500	-39.500	-39.000	-39.000	-38.500	-38.000	-37.500	-37.500	-37.000	-37.000	-36.500	-36.500	-36.000	-36.000	-35.500	-35.500	-35.500	-35.000	-35.000	-34.500	-34.500	-34.000	-33.500	-33.500	-33.000	-33.000	-32.500	-32.500	-32.000	-32.000	-31.500	-31.500	-31.000	-31.000	-30.500	-30.000	-30.000	-29.500	-29.000	-29.000	-28.500	-28.500	-28.000	-28.000	-27.500	-27.000	-26.500	-26.500	-26.500	-26.000	-26.000	-25.500	-25.000	-25.000	-24.500	-24.000	-24.000	-23.500	-23.000	-23.000	-22.500	-22.000	-22.000	-21.500	-21.000	-20.500	-20.500	-20.000	-19.500	-19.000	-18.500	-18.500	-18.000	-18.000	-18.000	-17.500	-17.500	-17.000	-16.500	-16.500	-16.000	-15.500	-15.000	-14.500	-14.000	-13.500	-13.500	-13.000	-13.000	-13.000	-12.500	-12.500	-12.000	-12.000	-12.000	-11.500	-11.000	-11.000	-10.500	-10.000	-10.000	-9.500	-9.000	-9.000	-8.500	-8.500	-8.000	-7.500	-7.000	-7.000	-6.500	-6.500	-6.000	-6.000	-5.500	-5.500	-5.500	-5.000	-5.000	-4.500	-4.500	-4.000	-4.000	-4.000	-3.500	-3.500	-3.000	-3.000	-3.000	-2.500	-2.500	-2.500	-2.500	-2.000	-2.000	-2.000	-1.500	-1.500	-1.500	-1.000	-1.000	-0.500	-0.500	0.000	0.000	0.000	0.500	0.500	0.500	1.000	1.000	1.000	1.000	1.000	1.000	1.000	1.000	1.500	1.500	1.500	1.500	1.500	2.000	2.000	2.000	6.000	6.000	7.000	6.000	7.000	7.000	7.000	7.000	7.000	7.000	7.000	8.000	7.000	8.000	8.000	8.000	14.000	16.000	19.000	22.000	25.000	27.000	30.000	32.000	33.000	35.000	35.000	36.000	39.000	41.000	37.000	39.000	46.000	48.000	50.000	48.000	52.000	53.000	54.000	54.000	54.000	57.000	57.000	58.000	59.000	61.000	62.000	62.000	63.000	64.000	64.000	65.000	65.000	65.000	66.000	66.000	66.000	66.000	67.000	67.000	67.000	67.000	67.000	67.000	67.000	67.000	68.000	68.000	67.000	67.000	67.000	67.000	67.000	66.000	66.000	66.000	66.000	66.000	65.000	65.000	65.000	65.000	65.000	65.000	65.000	65.000	65.000	65.000	65.000	65.000	65.000	65.000	65.000	65.000	65.000	64.000	64.000	63.000	61.000	61.000	60.000	58.000	56.000	56.000	55.000	55.000	54.000
-62.000	-61.500	-61.000	-60.500	-60.000	-59.500	-59.000	-58.500	-58.000	-57.500	-57.000	-56.500	-56.000	-55.500	-55.000	-54.500	-55.000	-55.000	-54.500	-54.500	-54.000	-54.000	-53.500	-53.500	-53.000	-52.500	-52.500	-52.000	-52.000	-52.000	-52.500	-53.000	-53.500	-53.500	-54.000	-54.500	-55.000	-55.500	-56.000	-56.000	-56.500	-57.000	-57.500	-58.000	-58.500	-58.500	-59.000	-59.500	-59.500	-59.500	-59.500	-59.500	-59.000	-59.000	-58.500	-58.500	-58.500	-58.000	-58.000	-58.000	-57.500	-57.500	-57.500	-57.500	-57.500	-57.500	-57.500	-57.000	-57.000	-57.000	-57.000	-57.000	-57.000	-57.000	-56.500	-56.000	-56.000	-56.000	-56.000	-56.000	-55.500	-55.500	-55.500	-55.500	-55.500	-55.500	-55.000	-55.000	-55.000	-54.500	-54.500	-54.000	-53.500	-53.500	-53.000	-52.500	-52.500	-52.000	-51.500	-51.000	-50.500	-50.500	-50.000	-49.500	-49.000	-49.000	-48.500	-48.500	-48.000	-48.000	-47.500	-47.500	-47.000	-47.000	-46.500	-46.500	-46.000	-46.000	-45.500	-45.500	-45.000	-45.000	-44.500	-44.000	-44.000	-43.500	-43.500	-43.000	-43.000	-42.500	-42.500	-42.000	-42.000	-41.500	-41.500	-41.000	-41.000	-40.500	-40.500	-40.000	-40.000	-40.000	-39.500	-39.500	-39.000	-39.000	-38.500	-38.500	-38.000	-37.500	-37.000	-37.000	-36.500	-36.500	-36.000	-36.000	-35.500	-35.500	-35.000	-35.000	-35.000	-34.500	-34.500	-34.000	-34.000	-33.500	-33.000	-33.000	-32.500	-32.500	-32.000	-32.000	-31.500	-31.500	-31.000	-31.000	-30.500	-30.500	-30.000	-29.500	-29.500	-29.000	-28.500	-28.500	-28.000	-28.000	-27.500	-27.500	-27.000	-26.500	-26.000	-26.000	-26.000	-25.500	-25.500	-25.000	-24.500	-24.500	-24.000	-23.500	-23.500	-23.000	-22.500	-22.500	-22.000	-21.500	-21.500	-21.000	-20.500	-20.000	-20.000	-19.500	-19.000	-18.500	-18.000	-18.000	-17.500	-17.500	-17.500	-17.000	-17.000	-16.500	-16.000	-16.000	-15.500	-15.000	-14.500	-14.000	-13.500	-13.000	-13.000	-12.500	-12.500	-12.500	-12.000	-12.000	-11.500	-11.500	-11.500	-11.000	-10.500	-10.500	-10.000	-9.500	-9.500	-9.000	-8.500	-8.500	-8.000	-8.000	-7.500	-7.000	-6.500	-6.500	-6.000	-6.000	-5.500	-5.500	-5.000	-5.000	-5.000	-4.500	-4.500	-4.000	-4.000	-3.500	-3.500	-3.500	-3.000	-3.000	-2.500	-2.500	-2.500	-2.000	-2.000	-2.000	-2.000	-1.500	-1.500	-1.500	-1.000	-1.000	-1.000	-0.500	-0.500	0.000	0.000	0.500	0.500	0.500	1.000	1.000	1.000	1.500	1.500	1.500	1.500	1.500	1.500	1.500	1.500	2.000	2.000	2.000	2.000	2.000	6.000	6.000	6.000	6.000	6.000	7.000	7.000	7.000	7.000	7.000	7.000	7.000	7.000	7.000	7.000	7.000	7.000	8.000	8.000	13.000	16.000	18.000	21.000	24.000	28.000	29.000	32.000	34.000	35.000	37.000	38.000	41.000	41.000	43.000	45.000	48.000	49.000	51.000	51.000	54.000	55.000	57.000	58.000	57.000	58.000	60.000	61.000	61.000	62.000	62.000	63.000	63.000	64.000	64.000	65.000	65.000	65.000	66.000	66.000	66.000	66.000	67.000	67.000	67.000	67.000	67.000	67.000	67.000	67.000	67.000	68.000	68.000	67.000	67.000	67.000	67.000	67.000	66.000	66.000	66.000	66.000	65.000	65.000	65.000	65.000	65.000	65.000	65.000	65.000	65.000	65.000	65.000	65.000	65.000	66.000	66.000	65.000	65.000	65.000	63.000	63.000	62.000	61.000	61.000	60.000	58.000	57.000	56.000	56.000	54.000
-61.500	-61.000	-60.500	-60.000	-59.500	-59.000	-58.500	-58.000	-57.500	-57.000	-56.500	-56.000	-55.500	-55.000	-54.500	-54.000	-54.500	-54.500	-54.000	-54.000	-53.500	-53.500	-53.000	-53.000	-52.500	-52.000	-52.000	-51.500	-51.500	-51.500	-52.000	-52.500	-53.000	-53.000	-53.500	-54.000	-54.500	-55.000	-55.500	-55.500	-56.000	-56.500	-57.000	-57.500	-58.000	-58.000	-58.500	-59.000	-59.000	-59.000	-59.000	-59.000	-58.500	-58.500	-58.000	-58.000	-58.000	-57.500	-57.500	-57.500	-57.000	-57.000	-57.000	-57.000	-57.000	-57.000	-57.000	-56.500	-56.500	-56.500	-56.500	-56.500	-56.500	-56.500	-56.000	-55.500	-55.500	-55.500	-55.500	-55.500	-55.000	-55.000	-55.000	-55.000	-55.000	-55.000	-54.500	-54.500	-54.500	-54.000	-54.000	-53.500	-53.000	-53.000	-52.500	-52.000	-52.000	-51.500	-51.000	-50.500	-50.000	-50.000	-49.500	-49.000	-48.500	-48.500	-48.000	-48.000	-47.500	-47.500	-47.000	-47.000	-46.500	-46.500	-46.000	-46.000	-45.500	-45.500	-45.000	-45.000	-44.500	-44.500	-44.000	-43.500	-43.500	-43.000	-43.000	-42.500	-42.500	-42.000	-42.000	-41.500	-41.500	-41.000	-41.000	-40.500	-40.500	-40.000	-40.000	-39.500	-39.500	-39.500	-39.000	-39.000	-38.500	-38.500	-38.000	-38.000	-37.500	-37.000	-36.500	-36.500	-36.000	-36.000	-35.500	-35.500	-35.000	-35.000	-34.500	-34.500	-34.500	-34.000	-34.000	-33.500	-33.500	-33.000	-32.500	-32.500	-32.000	-32.000	-31.500	-31.500	-31.000	-31.000	-30.500	-30.500	-30.000	-30.000	-29.500	-29.000	-29.000	-28.500	-28.000	-28.000	-27.500	-27.500	-27.000	-27.000	-26.500	-26.000	-25.500	-25.500	-25.500	-25.000	-25.000	-24.500	-24.000	-24.000	-23.500	-23.000	-23.000	-22.500	-22.000	-22.000	-21.500	-21.000	-21.000	-20.500	-20.000	-19.500	-19.500	-19.000	-18.500	-18.000	-17.500	-17.500	-17.000	-17.000	-17.000	-16.500	-16.500	-16.000	-15.500	-15.500	-15.000	-14.500	-14.000	-13.500	-13.000	-12.500	-12.500	-12.000	-12.000	-12.000	-11.500	-11.500	-11.000	-11.000	-11.000	-10.500	-10.000	-10.000	-9.500	-9.000	-9.000	-8.500	-8.000	-8.000	-7.500	-7.500	-7.000	-6.500	-6.000	-6.000	-5.500	-5.500	-5.000	-5.000	-4.500	-4.500	-4.500	-4.000	-4.000	-3.500	-3.500	-3.000	-3.000	-3.000	-2.500	-2.500	-2.000	-2.000	-2.000	-1.500	-1.500	-1.500	-1.500	-1.000	-1.000	-1.000	-0.500	-0.500	-0.500	0.000	0.000	0.500	0.500	1.000	1.000	1.000	1.500	1.500	1.500	2.000	2.000	2.000	2.000	2.000	2.000	2.000	2.000	7.000	5.000	4.000	6.000	6.000	6.000	6.000	6.000	6.000	6.000	7.000	7.000	7.000	5.000	5.000	5.000	7.000	7.000	7.000	7.000	7.000	7.000	8.000	8.000	11.000	15.000	18.000	20.000	24.000	27.000	29.000	33.000	35.000	37.000	38.000	40.000	41.000	43.000	44.000	46.000	49.000	51.000	52.000	53.000	55.000	58.000	58.000	59.000	59.000	60.000	61.000	62.000	61.000	62.000	63.000	63.000	64.000	64.000	65.000	65.000	65.000	66.000	66.000	66.000	66.000	66.000	67.000	67.000	67.000	67.000	67.000	67.000	67.000	68.000	68.000	68.000	68.000	67.000	67.000	67.000	67.000	67.000	66.000	66.000	66.000	66.000	66.000	66.000	65.000	65.000	65.000	65.000	66.000	65.000	66.000	66.000	65.000	66.000	66.000	66.000	66.000	65.000	65.000	65.000	65.000	64.000	63.000	62.000	60.000	60.000	59.000	58.000	57.000	57.000	55.000
-61.000	-60.500	-60.000	-59.500	-59.000	-58.500	-58.000	-57.500	-57.000	-56.500	-56.000	-55.500	-55.000	-54.500	-54.000	-53.500	-54.000	-54.000	-53.500	-53.500	-53.000	-53.000	-52.500	-52.500	-52.000	-51.500	-51.500	-51.000	-51.000	-51.000	-51.500	-52.000	-52.500	-52.500	-53.000	-53.500	-54.000	-54.500	-55.000	-55.000	-55.500	-56.000	-56.500	-57.000	-57.500	-57.500	-58.000	-58.500	-58.500	-58.500	-58.500	-58.500	-58.000	-58.000	-57.500	-57.500	-57.500	-57.000	-57.000	-57.000	-56.500	-56.500	-56.500	-56.500	-56.500	-56.500	-56.500	-56.000	-56.000	-56.000	-56.000	-56.000	-56.000	-56.000	-55.500	-55.000	-55.000	-55.000	-55.000	-55.000	-54.500	-54.500	-54.500	-54.500	-54.500	-54.500	-54.000	-54.000	-54.000	-53.500	-53.500	-53.000	-52.500	-52.500	-52.000	-51.500	-51.500	-51.000	-50.500	-50.000	-49.500	-49.500	-49.000	-48.500	-48.000	-48.000	-47.500	-47.500	-47.000	-47.000	-46.500	-46.500	-46.000	-46.000	-45.500	-45.500	-45.000	-45.000	-44.500	-44.500	-44.000	-44.000	-43.500	-43.000	-43.000	-42.500	-42.500	-42.000	-42.000	-41.500	-41.500	-41.000	-41.000	-40.500	-40.500	-40.000	-40.000	-39.500	-39.500	-39.000	-39.000	-39.000	-38.500	-38.500	-38.000	-38.000	-37.500	-37.500	-37.000	-36.500	-36.000	-36.000	-35.500	-35.500	-35.000	-35.000	-34.500	-34.500	-34.000	-34.000	-34.000	-33.500	-33.500	-33.000	-33.000	-32.500	-32.000	-32.000	-31.500	-31.500	-31.000	-31.000	-30.500	-30.500	-30.000	-30.000	-29.500	-29.500	-29.000	-28.500	-28.500	-28.000	-27.500	-27.500	-27.000	-27.000	-26.500	-26.500	-26.000	-25.500	-25.000	-25.000	-25.000	-24.500	-24.500	-24.000	-23.500	-23.500	-23.000	-22.500	-22.500	-22.000	-21.500	-21.500	-21.000	-20.500	-20.500	-20.000	-19.500	-19.000	-19.000	-18.500	-18.000	-17.500	-17.000	-17.000	-16.500	-16.500	-16.500	-16.000	-16.000	-15.500	-15.000	-15.000	-14.500	-14.000	-13.500	-13.000	-12.500	-12.000	-12.000	-11.500	-11.500	-11.500	-11.000	-11.000	-10.500	-10.500	-10.500	-10.000	-9.500	-9.500	-9.000	-8.500	-8.500	-8.000	-7.500	-7.500	-7.000	-7.000	-6.500	-6.000	-5.500	-5.500	-5.000	-5.000	-4.500	-4.500	-4.000	-4.000	-4.000	-3.500	-3.500	-3.000	-3.000	-2.500	-2.500	-2.500	-2.000	-2.000	-1.500	-1.500	-1.500	-1.000	-1.000	-1.000	-1.000	-0.500	-0.500	-0.500	0.000	0.000	0.000	0.500	0.500	1.000	1.000	1.500	1.500	1.500	2.000	2.000	2.000	17.000	17.000	11.000	9.000	8.000	8.000	7.000	7.000	7.000	7.000	4.000	6.000	6.000	6.000	6.000	6.000	5.000	6.000	6.000	7.000	5.000	5.000	5.000	5.000	6.000	7.000	7.000	7.000	6.000	8.000	8.000	12.000	15.000	16.000	19.000	22.000	26.000	30.000	30.000	32.000	35.000	37.000	39.000	41.000	42.000	44.000	46.000	47.000	49.000	51.000	53.000	54.000	56.000	58.000	59.000	61.000	60.000	61.000	62.000	63.000	62.000	63.000	63.000	64.000	64.000	64.000	65.000	65.000	66.000	66.000	66.000	66.000	66.000	67.000	67.000	67.000	67.000	67.000	67.000	67.000	68.000	68.000	68.000	68.000	68.000	68.000	67.000	67.000	67.000	67.000	67.000	66.000	66.000	66.000	66.000	66.000	66.000	65.000	65.000	65.000	66.000	66.000	66.000	66.000	66.000	66.000	66.000	66.000	66.000	66.000	66.000	66.000	66.000	64.000	64.000	63.000	62.000	61.000	59.000	58.000	57.000	56.000	56.000
-60.500	-60.000	-59.500	-59.000	-58.500	-58.000	-57.500	-57.000	-56.500	-56.000	-55.500	-55.000	-54.500	-54.000	-53.500	-53.000	-53.500	-53.500	-53.000	-53.000	-52.500	-52.500	-52.000	-52.000	-51.500	-51.000	-51.000	-50.500	-50.500	-50.500	-51.000	-51.500	-52.000	-52.000	-52.500	-53.000	-53.500	-54.000	-54.500	-54.500	-55.000	-55.500	-56.000	-56.500	-57.000	-57.000	-57.500	-58.000	-58.000	-58.000	-58.000	-58.000	-57.500	-57.500	-57.000	-57.000	-57.000	-56.500	-56.500	-56.500	-56.000	-56.000	-56.000	-56.000	-56.000	-56.000	-56.000	-55.500	-55.500	-55.500	-55.500	-55.500	-55.500	-55.500	-55.000	-54.500	-54.500	-54.500	-54.500	-54.500	-54.000	-54.000	-54.000	-54.000	-54.000	-54.000	-53.500	-53.500	-53.500	-53.000	-53.000	-52.500	-52.000	-52.000	-51.500	-51.000	-51.000	-50.500	-50.000	-49.500	-49.000	-49.000	-48.500	-48.000	-47.500	-47.500	-47.000	-47.000	-46.500	-46.500	-46.000	-46.000	-45.500	-45.500	-45.000	-45.000	-44.500	-44.500	-44.000	-44.000	-43.500	-43.500	-43.000	-42.500	-42.500	-42.000	-42.000	-41.500	-41.500	-41.000	-41.000	-40.500	-40.500	-40.000	-40.000	-39.500	-39.500	-39.000	-39.000	-38.500	-38.500	-38.500	-38.000	-38.000	-37.500	-37.500	-37.000	-37.000	-36.500	-36.000	-35.500	-35.500	-35.000	-35.000	-34.500	-34.500	-34.000	-34.000	-33.500	-33.500	-33.500	-33.000	-33.000	-32.500	-32.500	-32.000	-31.500	-31.500	-31.000	-31.000	-30.500	-30.500	-30.000	-30.000	-29.500	-29.500	-29.000	-29.000	-28.500	-28.000	-28.000	-27.500	-27.000	-27.000	-26.500	-26.500	-26.000	-26.000	-25.500	-25.000	-24.500	-24.500	-24.500	-24.000	-24.000	-23.500	-23.000	-23.000	-22.500	-22.000	-22.000	-21.500	-21.000	-21.000	-20.500	-20.000	-20.000	-19.500	-19.000	-18.500	-18.500	-18.000	-17.500	-17.000	-16.500	-16.500	-16.000	-16.000	-16.000	-15.500	-15.500	-15.000	-14.500	-14.500	-14.000	-13.500	-13.000	-12.500	-12.000	-11.500	-11.500	-11.000	-11.000	-11.000	-10.500	-10.500	-10.000	-10.000	-10.000	-9.500	-9.000	-9.000	-8.500	-8.000	-8.000	-7.500	-7.000	-7.000	-6.500	-6.500	-6.000	-5.500	-5.000	-5.000	-4.500	-4.500	-4.000	-4.000	-3.500	-3.500	-3.500	-3.000	-3.000	-2.500	-2.500	-2.000	-2.000	-2.000	-1.500	-1.500	-1.000	-1.000	-1.000	-0.500	-0.500	-0.500	-0.500	0.000	0.000	0.000	0.500	0.500	0.500	1.000	1.000	1.500	1.500	2.000	2.000	2.000	24.000	21.000	18.000	14.000	11.000	9.000	10.000	8.000	8.000	8.000	7.000	7.000	7.000	6.000	5.000	6.000	6.000	6.000	6.000	5.000	5.000	6.000	5.000	5.000	5.000	5.000	5.000	5.000	7.000	7.000	7.000	7.000	8.000	8.000	12.000	15.000	16.000	19.000	22.000	25.000	29.000	32.000	34.000	37.000	39.000	41.000	42.000	44.000	47.000	48.000	48.000	49.000	52.000	53.000	55.000	58.000	59.000	59.000	61.000	62.000	62.000	63.000	63.000	63.000	64.000	64.000	64.000	64.000	65.000	65.000	65.000	66.000	66.000	66.000	66.000	67.000	67.000	67.000	67.000	67.000	67.000	67.000	67.000	68.000	68.000	68.000	68.000	68.000	67.000	67.000	67.000	67.000	67.000	67.000	66.000	66.000	66.000	66.000	66.000	66.000	65.000	65.000	65.000	66.000	66.000	66.000	66.000	66.000	66.000	66.000	66.000	66.000	66.000	66.000	66.000	65.000	65.000	64.000	63.000	63.000	62.000	60.000	60.000	58.000	58.000	57.000
-60.000	-59.500	-59.000	-58.500	-58.000	-57.500	-57.000	-56.500	-56.000	-55.500	-55.000	-54.500	-54.000	-53.500	-53.000	-52.500	-53.000	-53.000	-52.500	-52.500	-52.000	-52.000	-51.500	-51.500	-51.000	-50.500	-50.500	-50.000	-50.000	-50.000	-50.500	-51.000	-51.500	-51.500	-52.000	-52.500	-53.000	-53.500	-54.000	-54.000	-54.500	-55.000	-55.500	-56.000	-56.500	-56.500	-57.000	-57.500	-57.500	-57.500	-57.500	-57.500	-57.000	-57.000	-56.500	-56.500	-56.500	-56.000	-56.000	-56.000	-55.500	-55.500	-55.500	-55.500	-55.500	-55.500	-55.500	-55.000	-55.000	-55.000	-55.000	-55.000	-55.000	-55.000	-54.500	-54.000	-54.000	-54.000	-54.000	-54.000	-53.500	-53.500	-53.500	-53.500	-53.500	-53.500	-53.000	-53.000	-53.000	-52.500	-52.500	-52.000	-51.500	-51.500	-51.000	-50.500	-50.500	-50.000	-49.500	-49.000	-48.500	-48.500	-48.000	-47.500	-47.000	-47.000	-46.500	-46.500	-46.000	-46.000	-45.500	-45.500	-45.000	-45.000	-44.500	-44.500	-44.000	-44.000	-43.500	-43.500	-43.000	-43.000	-42.500	-42.000	-42.000	-41.500	-41.500	-41.000	-41.000	-40.500	-40.500	-40.000	-40.000	-39.500	-39.500	-39.000	-39.000	-38.500	-38.500	-38.000	-38.000	-38.000	-37.500	-37.500	-37.000	-37.000	-36.500	-36.500	-36.000	-35.500	-35.000	-35.000	-34.500	-34.500	-34.000	-34.000	-33.500	-33.500	-33.000	-33.000	-33.000	-32.500	-32.500	-32.000	-32.000	-31.500	-31.000	-31.000	-30.500	-30.500	-30.000	-30.000	-29.500	-29.500	-29.000	-29.000	-28.500	-28.500	-28.000	-27.500	-27.500	-27.000	-26.500	-26.500	-26.000	-26.000	-25.500	-25.500	-25.000	-24.500	-24.000	-24.000	-24.000	-23.500	-23.500	-23.000	-22.500	-22.500	-22.000	-21.500	-21.500	-21.000	-20.500	-20.500	-20.000	-19.500	-19.500	-19.000	-18.500	-18.000	-18.000	-17.500	-17.000	-16.500	-16.000	-16.000	-15.500	-15.500	-15.500	-15.000	-15.000	-14.500	-14.000	-14.000	-13.500	-13.000	-12.500	-12.000	-11.500	-11.000	-11.000	-10.500	-10.500	-10.500	-10.000	-10.000	-9.500	-9.500	-9.500	-9.000	-8.500	-8.500	-8.000	-7.500	-7.500	-7.000	-6.500	-6.500	-6.000	-6.000	-5.500	-5.000	-4.500	-4.500	-4.000	-4.000	-3.500	-3.500	-3.000	-3.000	-3.000	-2.500	-2.500	-2.000	-2.000	-1.500	-1.500	-1.500	-1.000	-1.000	-0.500	-0.500	-0.500	0.000	0.000	0.000	0.000	0.500	0.500	0.500	1.000	1.000	1.000	1.500	1.500	2.000	2.000	32.000	29.000	26.000	24.000	20.000	18.000	13.000	13.000	10.000	6.000	5.000	5.000	5.000	7.000	6.000	6.000	5.000	6.000	5.000	5.000	8.000	5.000	6.000	6.000	5.000	5.000	5.000	5.000	5.000	5.000	5.000	5.000	7.000	7.000	8.000	8.000	8.000	11.000	13.000	16.000	18.000	20.000	24.000	28.000	32.000	34.000	36.000	39.000	41.000	42.000	45.000	47.000	48.000	50.000	52.000	54.000	56.000	58.000	59.000	60.000	62.000	62.000	63.000	63.000	63.000	64.000	64.000	64.000	64.000	65.000	65.000	65.000	65.000	65.000	66.000	66.000	66.000	66.000	67.000	67.000	67.000	67.000	67.000	67.000	67.000	67.000	68.000	68.000	68.000	68.000	67.000	67.000	67.000	67.000	67.000	67.000	67.000	67.000	66.000	66.000	66.000	66.000	66.000	66.000	66.000	66.000	66.000	66.000	66.000	66.000	66.000	66.000	66.000	66.000	66.000	66.000	66.000	66.000	65.000	66.000	65.000	64.000	63.000	63.000	61.000	59.000	59.000	59.000	58.000
-59.500	-59.000	-58.500	-58.000	-57.500	-57.000	-56.500	-56.000	-55.500	-55.000	-54.500	-54.000	-53.500	-53.000	-52.500	-52.000	-52.500	-52.500	-52.000	-52.000	-51.500	-51.500	-51.000	-51.000	-50.500	-50.000	-50.000	-49.500	-49.500	-49.500	-50.000	-50.500	-51.000	-51.000	-51.500	-52.000	-52.500	-53.000	-53.500	-53.500	-54.000	-54.500	-55.000	-55.500	-56.000	-56.000	-56.500	-57.000	-57.000	-57.000	-57.000	-57.000	-56.500	-56.500	-56.000	-56.000	-56.000	-55.500	-55.500	-55.500	-55.000	-55.000	-55.000	-55.000	-55.000	-55.000	-55.000	-54.500	-54.500	-54.500	-54.500	-54.500	-54.500	-54.500	-54.000	-53.500	-53.500	-53.500	-53.500	-53.500	-53.000	-53.000	-53.000	-53.000	-53.000	-53.000	-52.500	-52.500	-52.500	-52.000	-52.000	-51.500	-51.000	-51.000	-50.500	-50.000	-50.000	-49.500	-49.000	-48.500	-48.000	-48.000	-47.500	-47.000	-46.500	-46.500	-46.000	-46.000	-45.500	-45.500	-45.000	-45.000	-44.500	-44.500	-44.000	-44.000	-43.500	-43.500	-43.000	-43.000	-42.500	-42.500	-42.000	-41.500	-41.500	-41.000	-41.000	-40.500	-40.500	-40.000	-40.000	-39.500	-39.500	-39.000	-39.000	-38.500	-38.500	-38.000	-38.000	-37.500	-37.500	-37.500	-37.000	-37.000	-36.500	-36.500	-36.000	-36.000	-35.500	-35.000	-34.500	-34.500	-34.000	-34.000	-33.500	-33.500	-33.000	-33.000	-32.500	-32.500	-32.500	-32.000	-32.000	-31.500	-31.500	-31.000	-30.500	-30.500	-30.000	-30.000	-29.500	-29.500	-29.000	-29.000	-28.500	-28.500	-28.000	-28.000	-27.500	-27.000	-27.000	-26.500	-26.000	-26.000	-25.500	-25.500	-25.000	-25.000	-24.500	-24.000	-23.500	-23.500	-23.500	-23.000	-23.000	-22.500	-22.000	-22.000	-21.500	-21.000	-21.000	-20.500	-20.000	-20.000	-19.500	-19.000	-19.000	-18.500	-18.000	-17.500	-17.500	-17.000	-16.500	-16.000	-15.500	-15.500	-15.000	-15.000	-15.000	-14.500	-14.500	-14.000	-13.500	-13.500	-13.000	-12.500	-12.000	-11.500	-11.000	-10.500	-10.500	-10.000	-10.000	-10.000	-9.500	-9.500	-9.000	-9.000	-9.000	-8.500	-8.000	-8.000	-7.500	-7.000	-7.000	-6.500	-6.000	-6.000	-5.500	-5.500	-5.000	-4.500	-4.000	-4.000	-3.500	-3.500	-3.000	-3.000	-2.500	-2.500	-2.500	-2.000	-2.000	-1.500	-1.500	-1.000	-1.000	-1.000	-0.500	-0.500	0.000	0.000	0.000	0.500	0.500	0.500	0.500	1.000	1.000	1.000	1.500	1.500	1.500	2.000	2.000	41.000	35.000	32.000	28.000	26.000	23.000	20.000	18.000	14.000	14.000	10.000	5.000	5.000	5.000	5.000	5.000	5.000	5.000	5.000	6.000	5.000	6.000	5.000	5.000	5.000	5.000	5.000	5.000	5.000	5.000	5.000	5.000	5.000	5.000	7.000	7.000	8.000	8.000	8.000	10.000	12.000	15.000	18.000	21.000	24.000	27.000	31.000	34.000	37.000	39.000	41.000	43.000	45.000	47.000	48.000	50.000	52.000	54.000	56.000	58.000	60.000	61.000	62.000	63.000	63.000	64.000	64.000	65.000	65.000	65.000	65.000	65.000	66.000	65.000	65.000	66.000	66.000	66.000	66.000	67.000	67.000	67.000	67.000	67.000	67.000	67.000	67.000	67.000	68.000	68.000	68.000	68.000	68.000	68.000	68.000	67.000	68.000	67.000	67.000	67.000	66.000	66.000	66.000	66.000	66.000	66.000	66.000	66.000	66.000	66.000	66.000	66.000	66.000	66.000	66.000	66.000	66.000	66.000	66.000	66.000	65.000	65.000	65.000	65.000	64.000	64.000	62.000	61.000	60.000	59.000	58.000
-59.000	-58.500	-58.000	-57.500	-57.000	-56.500	-56.000	-55.500	-55.000	-54.500	-54.000	-53.500	-53.000	-52.500	-52.000	-51.500	-52.000	-52.000	-51.500	-51.500	-51.000	-51.000	-50.500	-50.500	-50.000	-49.500	-49.500	-49.000	-49.000	-49.000	-49.500	-50.000	-50.500	-50.500	-51.000	-51.500	-52.000	-52.500	-53.000	-53.000	-53.500	-54.000	-54.500	-55.000	-55.500	-55.500	-56.000	-56.500	-56.500	-56.500	-56.500	-56.500	-56.000	-56.000	-55.500	-55.500	-55.500	-55.000	-55.000	-55.000	-54.500	-54.500	-54.500	-54.500	-54.500	-54.500	-54.500	-54.000	-54.000	-54.000	-54.000	-54.000	-54.000	-54.000	-53.500	-53.000	-53.000	-53.000	-53.000	-53.000	-52.500	-52.500	-52.500	-52.500	-52.500	-52.500	-52.000	-52.000	-52.000	-51.500	-51.500	-51.000	-50.500	-50.500	-50.000	-49.500	-49.500	-49.000	-48.500	-48.000	-47.500	-47.500	-47.000	-46.500	-46.000	-46.000	-45.500	-45.500	-45.000	-45.000	-44.500	-44.500	-44.000	-44.000	-43.500	-43.500	-43.000	-43.000	-42.500	-42.500	-42.000	-42.000	-41.500	-41.000	-41.000	-40.500	-40.500	-40.000	-40.000	-39.500	-39.500	-39.000	-39.000	-38.500	-38.500	-38.000	-38.000	-37.500	-37.500	-37.000	-37.000	-37.000	-36.500	-36.500	-36.000	-36.000	-35.500	-35.500	-35.000	-34.500	-34.000	-34.000	-33.500	-33.500	-33.000	-33.000	-32.500	-32.500	-32.000	-32.000	-32.000	-31.500	-31.500	-31.000	-31.000	-30.500	-30.000	-30.000	-29.500	-29.500	-29.000	-29.000	-28.500	-28.500	-28.000	-28.000	-27.500	-27.500	-27.000	-26.500	-26.500	-26.000	-25.500	-25.500	-25.000	-25.000	-24.500	-24.500	-24.000	-23.500	-23.000	-23.000	-23.000	-22.500	-22.500	-22.000	-21.500	-21.500	-21.000	-20.500	-20.500	-20.000	-19.500	-19.500	-19.000	-18.500	-18.500	-18.000	-17.500	-17.000	-17.000	-16.500	-16.000	-15.500	-15.000	-15.000	-14.500	-14.500	-14.500	-14.000	-14.000	-13.500	-13.000	-13.000	-12.500	-12.000	-11.500	-11.000	-10.500	-10.000	-10.000	-9.500	-9.500	-9.500	-9.000	-9.000	-8.500	-8.500	-8.500	-8.000	-7.500	-7.500	-7.000	-6.500	-6.500	-6.000	-5.500	-5.500	-5.000	-5.000	-4.500	-4.000	-3.500	-3.500	-3.000	-3.000	-2.500	-2.500	-2.000	-2.000	-2.000	-1.500	-1.500	-1.000	-1.000	-0.500	-0.500	-0.500	0.000	0.000	0.500	0.500	0.500	1.000	1.000	1.000	1.000	1.500	1.500	1.500	2.000	2.000	2.000	49.000	44.000	41.000	35.000	32.000	28.000	25.000	22.000	20.000	18.000	14.000	13.000	10.000	6.000	5.000	5.000	5.000	5.000	5.000	5.000	5.000	4.000	5.000	5.000	5.000	5.000	5.000	5.000	5.000	5.000	5.000	5.000	5.000	5.000	5.000	5.000	5.000	6.000	7.000	8.000	9.000	10.000	11.000	16.000	17.000	19.000	24.000	27.000	31.000	33.000	36.000	38.000	41.000	43.000	45.000	47.000	48.000	50.000	52.000	55.000	57.000	59.000	61.000	62.000	63.000	63.000	64.000	64.000	65.000	65.000	65.000	66.000	66.000	66.000	66.000	66.000	66.000	66.000	66.000	66.000	67.000	67.000	67.000	67.000	67.000	67.000	67.000	67.000	68.000	67.000	67.000	68.000	68.000	68.000	68.000	68.000	68.000	68.000	68.000	67.000	67.000	67.000	67.000	66.000	66.000	66.000	66.000	66.000	66.000	66.000	66.000	66.000	66.000	66.000	67.000	67.000	66.000	66.000	66.000	66.000	66.000	66.000	65.000	65.000	65.000	64.000	64.000	63.000	61.000	61.000	61.000	60.000	59.000
-58.500	-58.000	-57.500	-57.000	-56.500	-56.000	-55.500	-55.000	-54.500	-54.000	-53.500	-53.000	-52.500	-52.000	-51.500	-51.000	-51.500	-51.500	-51.000	-51.000	-50.500	-50.500	-50.000	-50.000	-49.500	-49.000	-49.000	-48.500	-48.500	-48.500	-49.000	-49.500	-50.000	-50.000	-50.500	-51.000	-51.500	-52.000	-52.500	-52.500	-53.000	-53.500	-54.000	-54.500	-55.000	-55.000	-55.500	-56.000	-56.000	-56.000	-56.000	-56.000	-55.500	-55.500	-55.000	-55.000	-55.000	-54.500	-54.500	-54.500	-54.000	-54.000	-54.000	-54.000	-54.000	-54.000	-54.000	-53.500	-53.500	-53.500	-53.500	-53.500	-53.500	-53.500	-53.000	-52.500	-52.500	-52.500	-52.500	-52.500	-52.000	-52.000	-52.000	-52.000	-52.000	-52.000	-51.500	-51.500	-51.500	-51.000	-51.000	-50.500	-50.000	-50.000	-49.500	-49.000	-49.000	-48.500	-48.000	-47.500	-47.000	-47.000	-46.500	-46.000	-45.500	-45.500	-45.000	-45.000	-44.500	-44.500	-44.000	-44.000	-43.500	-43.500	-43.000	-43.000	-42.500	-42.500	-42.000	-42.000	-41.500	-41.500	-41.000	-40.500	-40.500	-40.000	-40.000	-39.500	-39.500	-39.000	-39.000	-38.500	-38.500	-38.000	-38.000	-37.500	-37.500	-37.000	-37.000	-36.500	-36.500	-36.500	-36.000	-36.000	-35.500	-35.500	-35.000	-35.000	-34.500	-34.000	-33.500	-33.500	-33.000	-33.000	-32.500	-32.500	-32.000	-32.000	-31.500	-31.500	-31.500	-31.000	-31.000	-30.500	-30.500	-30.000	-29.500	-29.500	-29.000	-29.000	-28.500	-28.500	-28.000	-28.000	-27.500	-27.500	-27.000	-27.000	-26.500	-26.000	-26.000	-25.500	-25.000	-25.000	-24.500	-24.500	-24.000	-24.000	-23.500	-23.000	-22.500	-22.500	-22.500	-22.000	-22.000	-21.500	-21.000	-21.000	-20.500	-20.000	-20.000	-19.500	-19.000	-19.000	-18.500	-18.000	-18.000	-17.500	-17.000	-16.500	-16.500	-16.000	-15.500	-15.000	-14.500	-14.500	-14.000	-14.000	-14.000	-13.500	-13.500	-13.000	-12.500	-12.500	-12.000	-11.500	-11.000	-10.500	-10.000	-9.500	-9.500	-9.000	-9.000	-9.000	-8.500	-8.500	-8.000	-8.000	-8.000	-7.500	-7.000	-7.000	-6.500	-6.000	-6.000	-5.500	-5.000	-5.000	-4.500	-4.500	-4.000	-3.500	-3.000	-3.000	-2.500	-2.500	-2.000	-2.000	-1.500	-1.500	-1.500	-1.000	-1.000	-0.500	-0.500	0.000	0.000	0.000	0.500	0.500	1.000	1.000	1.000	1.500	1.500	1.500	1.500	2.000	2.000	2.000	56.000	54.000	50.000	45.000	41.000	36.000	32.000	29.000	26.000	26.000	22.000	20.000	18.000	15.000	14.000	10.000	6.000	5.000	5.000	5.000	5.000	5.000	5.000	5.000	4.000	5.000	5.000	5.000	5.000	5.000	5.000	5.000	5.000	5.000	5.000	5.000	5.000	5.000	5.000	5.000	6.000	7.000	8.000	9.000	11.000	15.000	16.000	19.000	23.000	26.000	30.000	33.000	36.000	36.000	39.000	41.000	43.000	45.000	47.000	49.000	51.000	53.000	56.000	56.000	59.000	61.000	62.000	64.000	64.000	64.000	65.000	65.000	65.000	65.000	66.000	66.000	66.000	66.000	66.000	66.000	66.000	66.000	66.000	67.000	67.000	67.000	67.000	67.000	67.000	67.000	67.000	67.000	68.000	68.000	68.000	68.000	68.000	68.000	68.000	68.000	68.000	68.000	68.000	67.000	67.000	67.000	66.000	66.000	66.000	66.000	66.000	66.000	66.000	66.000	67.000	67.000	66.000	66.000	66.000	66.000	67.000	66.000	66.000	66.000	66.000	66.000	65.000	65.000	64.000	64.000	63.000	62.000	61.000	61.000	61.000	60.000
-58.000	-57.500	-57.000	-56.500	-56.000	-55.500	-55.000	-54.500	-54.000	-53.500	-53.000	-52.500	-52.000	-51.500	-51.000	-50.500	-51.000	-51.000	-50.500	-50.500	-50.000	-50.000	-49.500	-49.500	-49.000	-48.500	-48.500	-48.000	-48.000	-48.000	-48.500	-49.000	-49.500	-49.500	-50.000	-50.500	-51.000	-51.500	-52.000	-52.000	-52.500	-53.000	-53.500	-54.000	-54.500	-54.500	-55.000	-55.500	-55.500	-55.500	-55.500	-55.500	-55.000	-55.000	-54.500	-54.500	-54.500	-54.000	-54.000	-54.000	-53.500	-53.500	-53.500	-53.500	-53.500	-53.500	-53.500	-53.000	-53.000	-53.000	-53.000	-53.000	-53.000	-53.000	-52.500	-52.000	-52.000	-52.000	-52.000	-52.000	-51.500	-51.500	-51.500	-51.500	-51.500	-51.500	-51.000	-51.000	-51.000	-50.500	-50.500	-50.000	-49.500	-49.500	-49.000	-48.500	-48.500	-48.000	-47.500	-47.000	-46.500	-46.500	-46.000	-45.500	-45.000	-45.000	-44.500	-44.500	-44.000	-44.000	-43.500	-43.500	-43.000	-43.000	-42.500	-42.500	-42.000	-42.000	-41.500	-41.500	-41.000	-41.000	-40.500	-40.000	-40.000	-39.500	-39.500	-39.000	-39.000	-38.500	-38.500	-38.000	-38.000	-37.500	-37.500	-37.000	-37.000	-36.500	-36.500	-36.000	-36.000	-36.000	-35.500	-35.500	-35.000	-35.000	-34.500	-34.500	-34.000	-33.500	-33.000	-33.000	-32.500	-32.500	-32.000	-32.000	-31.500	-31.500	-31.000	-31.000	-31.000	-30.500	-30.500	-30.000	-30.000	-29.500	-29.000	-29.000	-28.500	-28.500	-28.000	-28.000	-27.500	-27.500	-27.000	-27.000	-26.500	-26.500	-26.000	-25.500	-25.500	-25.000	-24.500	-24.500	-24.000	-24.000	-23.500	-23.500	-23.000	-22.500	-22.000	-22.000	-22.000	-21.500	-21.500	-21.000	-20.500	-20.500	-20.000	-19.500	-19.500	-19.000	-18.500	-18.500	-18.000	-17.500	-17.500	-17.000	-16.500	-16.000	-16.000	-15.500	-15.000	-14.500	-14.000	-14.000	-13.500	-13.500	-13.500	-13.000	-13.000	-12.500	-12.000	-12.000	-11.500	-11.000	-10.500	-10.000	-9.500	-9.000	-9.000	-8.500	-8.500	-8.500	-8.000	-8.000	-7.500	-7.500	-7.500	-7.000	-6.500	-6.500	-6.000	-5.500	-5.500	-5.000	-4.500	-4.500	-4.000	-4.000	-3.500	-3.000	-2.500	-2.500	-2.000	-2.000	-1.500	-1.500	-1.000	-1.000	-1.000	-0.500	-0.500	0.000	0.000	0.500	0.500	0.500	1.000	1.000	1.500	1.500	1.500	2.000	2.000	2.000	2.000	62.000	58.000	55.000	53.000	54.000	50.000	46.000	42.000	38.000	33.000	30.000	26.000	23.000	20.000	18.000	15.000	12.000	12.000	6.000	5.000	5.000	5.000	5.000	5.000	5.000	5.000	5.000	5.000	5.000	5.000	5.000	5.000	5.000	5.000	5.000	5.000	5.000	5.000	5.000	5.000	5.000	5.000	5.000	6.000	7.000	8.000	9.000	11.000	15.000	17.000	20.000	24.000	26.000	29.000	33.000	37.000	39.000	41.000	43.000	46.000	47.000	49.000	51.000	53.000	55.000	55.000	57.000	59.000	61.000	63.000	64.000	64.000	65.000	65.000	66.000	66.000	66.000	66.000	66.000	66.000	66.000	66.000	66.000	66.000	66.000	66.000	67.000	67.000	67.000	67.000	67.000	67.000	67.000	68.000	68.000	68.000	68.000	68.000	68.000	68.000	68.000	68.000	68.000	68.000	68.000	67.000	67.000	67.000	67.000	66.000	66.000	66.000	66.000	66.000	66.000	66.000	67.000	67.000	67.000	67.000	67.000	67.000	67.000	67.000	67.000	67.000	66.000	66.000	66.000	65.000	65.000	65.000	64.000	63.000	62.000	62.000	61.000	61.000	61.000
-57.500	-57.000	-56.500	-56.000	-55.500	-55.000	-54.500	-54.000	-53.500	-53.000	-52.500	-52.000	-51.500	-51.000	-50.500	-50.000	-50.500	-50.500	-50.000	-50.000	-49.500	-49.500	-49.000	-49.000	-48.500	-48.000	-48.000	-47.500	-47.500	-47.500	-48.000	-48.500	-49.000	-49.000	-49.500	-50.000	-50.500	-51.000	-51.500	-51.500	-52.000	-52.500	-53.000	-53.500	-54.000	-54.000	-54.500	-55.000	-55.000	-55.000	-55.000	-55.000	-54.500	-54.500	-54.000	-54.000	-54.000	-53.500	-53.500	-53.500	-53.000	-53.000	-53.000	-53.000	-53.000	-53.000	-53.000	-52.500	-52.500	-52.500	-52.500	-52.500	-52.500	-52.500	-52.000	-51.500	-51.500	-51.500	-51.500	-51.500	-51.000	-51.000	-51.000	-51.000	-51.000	-51.000	-50.500	-50.500	-50.500	-50.000	-50.000	-49.500	-49.000	-49.000	-48.500	-48.000	-48.000	-47.500	-47.000	-46.500	-46.000	-46.000	-45.500	-45.000	-44.500	-44.500	-44.000	-44.000	-43.500	-43.500	-43.000	-43.000	-42.500	-42.500	-42.000	-42.000	-41.500	-41.500	-41.000	-41.000	-40.500	-40.500	-40.000	-39.500	-39.500	-39.000	-39.000	-38.500	-38.500	-38.000	-38.000	-37.500	-37.500	-37.000	-37.000	-36.500	-36.500	-36.000	-36.000	-35.500	-35.500	-35.500	-35.000	-35.000	-34.500	-34.500	-34.000	-34.000	-33.500	-33.000	-32.500	-32.500	-32.000	-32.000	-31.500	-31.500	-31.000	-31.000	-30.500	-30.500	-30.500	-30.000	-30.000	-29.500	-29.500	-29.000	-28.500	-28.500	-28.000	-28.000	-27.500	-27.500	-27.000	-27.000	-26.500	-26.500	-26.000	-26.000	-25.500	-25.000	-25.000	-24.500	-24.000	-24.000	-23.500	-23.500	-23.000	-23.000	-22.500	-22.000	-21.500	-21.500	-21.500	-21.000	-21.000	-20.500	-20.000	-20.000	-19.500	-19.000	-19.000	-18.500	-18.000	-18.000	-17.500	-17.000	-17.000	-16.500	-16.000	-15.500	-15.500	-15.000	-14.500	-14.000	-13.500	-13.500	-13.000	-13.000	-13.000	-12.500	-12.500	-12.000	-11.500	-11.500	-11.000	-10.500	-10.000	-9.500	-9.000	-8.500	-8.500	-8.000	-8.000	-8.000	-7.500	-7.500	-7.000	-7.000	-7.000	-6.500	-6.000	-6.000	-5.500	-5.000	-5.000	-4.500	-4.000	-4.000	-3.500	-3.500	-3.000	-2.500	-2.000	-2.000	-1.500	-1.500	-1.000	-1.000	-0.500	-0.500	-0.500	0.000	0.000	0.500	0.500	1.000	1.000	1.000	1.500	1.500	2.000	2.000	2.000	76.000	70.000	64.000	62.000	58.000	54.000	51.000	49.000	51.000	48.000	45.000	41.000	38.000	33.000	29.000	26.000	24.000	20.000	18.000	15.000	13.000	11.000	7.000	5.000	5.000	5.000	5.000	5.000	5.000	5.000	5.000	4.000	5.000	5.000	5.000	5.000	5.000	5.000	5.000	5.000	5.000	5.000	5.000	5.000	5.000	5.000	5.000	6.000	7.000	8.000	9.000	13.000	15.000	18.000	21.000	24.000	28.000	29.000	33.000	37.000	39.000	42.000	44.000	46.000	48.000	49.000	51.000	53.000	55.000	57.000	59.000	61.000	64.000	64.000	65.000	66.000	66.000	66.000	66.000	66.000	66.000	66.000	66.000	66.000	66.000	66.000	66.000	66.000	66.000	66.000	67.000	67.000	67.000	67.000	67.000	67.000	67.000	67.000	68.000	68.000	68.000	68.000	68.000	68.000	68.000	68.000	68.000	68.000	68.000	67.000	67.000	67.000	67.000	66.000	66.000	66.000	66.000	66.000	66.000	67.000	67.000	67.000	67.000	67.000	67.000	67.000	67.000	67.000	67.000	67.000	66.000	66.000	66.000	65.000	65.000	65.000	64.000	63.000	63.000	62.000	62.000	62.000	62.000
-57.000	-56.500	-56.000	-55.500	-55.000	-54.500	-54.000	-53.500	-53.000	-52.500	-52.000	-51.500	-51.000	-50.500	-50.000	-49.500	-50.000	-50.000	-49.500	-49.500	-49.000	-49.000	-48.500	-48.500	-48.000	-47.500	-47.500	-47.000	-47.000	-47.000	-47.500	-48.000	-48.500	-48.500	-49.000	-49.500	-50.000	-50.500	-51.000	-51.000	-51.500	-52.000	-52.500	-53.000	-53.500	-53.500	-54.000	-54.500	-54.500	-54.500	-54.500	-54.500	-54.000	-54.000	-53.500	-53.500	-53.500	-53.000	-53.000	-53.000	-52.500	-52.500	-52.500	-52.500	-52.500	-52.500	-52.500	-52.000	-52.000	-52.000	-52.000	-52.000	-52.000	-52.000	-51.500	-51.000	-51.000	-51.000	-51.000	-51.000	-50.500	-50.500	-50.500	-50.500	-50.500	-50.500	-50.000	-50.000	-50.000	-49.500	-49.500	-49.000	-48.500	-48.500	-48.000	-47.500	-47.500	-47.000	-46.500	-46.000	-45.500	-45.500	-45.000	-44.500	-44.000	-44.000	-43.500	-43.500	-43.000	-43.000	-42.500	-42.500	-42.000	-42.000	-41.500	-41.500	-41.000	-41.000	-40.500	-40.500	-40.000	-40.000	-39.500	-39.000	-39.000	-38.500	-38.500	-38.000	-38.000	-37.500	-37.500	-37.000	-37.000	-36.500	-36.500	-36.000	-36.000	-35.500	-35.500	-35.000	-35.000	-35.000	-34.500	-34.500	-34.000	-34.000	-33.500	-33.500	-33.000	-32.500	-32.000	-32.000	-31.500	-31.500	-31.000	-31.000	-30.500	-30.500	-30.000	-30.000	-30.000	-29.500	-29.500	-29.000	-29.000	-28.500	-28.000	-28.000	-27.500	-27.500	-27.000	-27.000	-26.500	-26.500	-26.000	-26.000	-25.500	-25.500	-25.000	-24.500	-24.500	-24.000	-23.500	-23.500	-23.000	-23.000	-22.500	-22.500	-22.000	-21.500	-21.000	-21.000	-21.000	-20.500	-20.500	-20.000	-19.500	-19.500	-19.000	-18.500	-18.500	-18.000	-17.500	-17.500	-17.000	-16.500	-16.500	-16.000	-15.500	-15.000	-15.000	-14.500	-14.000	-13.500	-13.000	-13.000	-12.500	-12.500	-12.500	-12.000	-12.000	-11.500	-11.000	-11.000	-10.500	-10.000	-9.500	-9.000	-8.500	-8.000	-8.000	-7.500	-7.500	-7.500	-7.000	-7.000	-6.500	-6.500	-6.500	-6.000	-5.500	-5.500	-5.000	-4.500	-4.500	-4.000	-3.500	-3.500	-3.000	-3.000	-2.500	-2.000	-1.500	-1.500	-1.000	-1.000	-0.500	-0.500	0.000	0.000	0.000	0.500	0.500	1.000	1.000	1.500	1.500	1.500	2.000	2.000	83.000	76.000	76.000	74.000	69.000	64.000	59.000	55.000	51.000	48.000	46.000	47.000	45.000	42.000	39.000	36.000	33.000	31.000	27.000	25.000	21.000	18.000	15.000	13.000	11.000	10.000	5.000	5.000	5.000	5.000	5.000	5.000	5.000	5.000	4.000	5.000	5.000	5.000	5.000	5.000	5.000	5.000	5.000	5.000	5.000	5.000	5.000	5.000	5.000	5.000	5.000	6.000	7.000	9.000	14.000	16.000	19.000	22.000	25.000	27.000	31.000	33.000	39.000	40.000	43.000	45.000	47.000	49.000	50.000	52.000	54.000	56.000	58.000	60.000	62.000	63.000	65.000	66.000	66.000	66.000	66.000	67.000	67.000	67.000	67.000	67.000	67.000	66.000	66.000	66.000	66.000	66.000	66.000	67.000	67.000	67.000	67.000	67.000	67.000	67.000	67.000	68.000	68.000	68.000	68.000	68.000	68.000	68.000	68.000	68.000	68.000	68.000	67.000	67.000	67.000	67.000	67.000	66.000	66.000	66.000	66.000	66.000	67.000	67.000	67.000	67.000	67.000	67.000	67.000	67.000	67.000	66.000	66.000	66.000	66.000	66.000	66.000	65.000	64.000	64.000	64.000	63.000	63.000	63.000	63.000	62.000
-56.500	-56.000	-55.500	-55.000	-54.500	-54.000	-53.500	-53.000	-52.500	-52.000	-51.500	-51.000	-50.500	-50.000	-49.500	-49.000	-49.500	-49.500	-49.000	-49.000	-48.500	-48.500	-48.000	-48.000	-47.500	-47.000	-47.000	-46.500	-46.500	-46.500	-47.000	-47.500	-48.000	-48.000	-48.500	-49.000	-49.500	-50.000	-50.500	-50.500	-51.000	-51.500	-52.000	-52.500	-53.000	-53.000	-53.500	-54.000	-54.000	-54.000	-54.000	-54.000	-53.500	-53.500	-53.000	-53.000	-53.000	-52.500	-52.500	-52.500	-52.000	-52.000	-52.000	-52.000	-52.000	-52.000	-52.000	-51.500	-51.500	-51.500	-51.500	-51.500	-51.500	-51.500	-51.000	-50.500	-50.500	-50.500	-50.500	-50.500	-50.000	-50.000	-50.000	-50.000	-50.000	-50.000	-49.500	-49.500	-49.500	-49.000	-49.000	-48.500	-48.000	-48.000	-47.500	-47.000	-47.000	-46.500	-46.000	-45.500	-45.000	-45.000	-44.500	-44.000	-43.500	-43.500	-43.000	-43.000	-42.500	-42.500	-42.000	-42.000	-41.500	-41.500	-41.000	-41.000	-40.500	-40.500	-40.000	-40.000	-39.500	-39.500	-39.000	-38.500	-38.500	-38.000	-38.000	-37.500	-37.500	-37.000	-37.000	-36.500	-36.500	-36.000	-36.000	-35.500	-35.500	-35.000	-35.000	-34.500	-34.500	-34.500	-34.000	-34.000	-33.500	-33.500	-33.000	-33.000	-32.500	-32.000	-31.500	-31.500	-31.000	-31.000	-30.500	-30.500	-30.000	-30.000	-29.500	-29.500	-29.500	-29.000	-29.000	-28.500	-28.500	-28.000	-27.500	-27.500	-27.000	-27.000	-26.500	-26.500	-26.000	-26.000	-25.500	-25.500	-25.000	-25.000	-24.500	-24.000	-24.000	-23.500	-23.000	-23.000	-22.500	-22.500	-22.000	-22.000	-21.500	-21.000	-20.500	-20.500	-20.500	-20.000	-20.000	-19.500	-19.000	-19.000	-18.500	-18.000	-18.000	-17.500	-17.000	-17.000	-16.500	-16.000	-16.000	-15.500	-15.000	-14.500	-14.500	-14.000	-13.500	-13.000	-12.500	-12.500	-12.000	-12.000	-12.000	-11.500	-11.500	-11.000	-10.500	-10.500	-10.000	-9.500	-9.000	-8.500	-8.000	-7.500	-7.500	-7.000	-7.000	-7.000	-6.500	-6.500	-6.000	-6.000	-6.000	-5.500	-5.000	-5.000	-4.500	-4.000	-4.000	-3.500	-3.000	-3.000	-2.500	-2.500	-2.000	-1.500	-1.000	-1.000	-0.500	-0.500	0.000	0.000	0.500	0.500	0.500	1.000	1.000	1.500	1.500	2.000	2.000	2.000	96.000	93.000	88.000	77.000	73.000	67.000	64.000	60.000	55.000	50.000	47.000	45.000	44.000	44.000	42.000	39.000	37.000	36.000	32.000	29.000	27.000	25.000	22.000	19.000	16.000	13.000	11.000	9.000	6.000	6.000	5.000	5.000	5.000	5.000	5.000	5.000	4.000	5.000	5.000	5.000	5.000	5.000	5.000	5.000	5.000	5.000	5.000	5.000	5.000	5.000	5.000	5.000	7.000	8.000	9.000	16.000	17.000	20.000	20.000	23.000	25.000	29.000	33.000	35.000	39.000	40.000	43.000	45.000	47.000	48.000	50.000	52.000	54.000	55.000	57.000	60.000	61.000	63.000	65.000	66.000	67.000	66.000	67.000	67.000	67.000	67.000	67.000	67.000	67.000	66.000	66.000	66.000	66.000	66.000	67.000	67.000	67.000	67.000	67.000	67.000	67.000	67.000	67.000	67.000	68.000	68.000	68.000	68.000	68.000	68.000	68.000	68.000	68.000	68.000	67.000	67.000	67.000	67.000	67.000	67.000	67.000	67.000	67.000	67.000	67.000	67.000	67.000	67.000	67.000	67.000	67.000	67.000	67.000	67.000	66.000	66.000	66.000	66.000	65.000	64.000	64.000	64.000	64.000	63.000	63.000	63.000	63.000	63.000
-56.000	-55.500	-55.000	-54.500	-54.000	-53.500	-53.000	-52.500	-52.000	-51.500	-51.000	-50.500	-50.000	-49.500	-49.000	-48.500	-49.000	-49.000	-48.500	-48.500	-48.000	-48.000	-47.500	-47.500	-47.000	-46.500	-46.500	-46.000	-46.000	-46.000	-46.500	-47.000	-47.500	-47.500	-48.000	-48.500	-49.000	-49.500	-50.000	-50.000	-50.500	-51.000	-51.500	-52.000	-52.500	-52.500	-53.000	-53.500	-53.500	-53.500	-53.500	-53.500	-53.000	-53.000	-52.500	-52.500	-52.500	-52.000	-52.000	-52.000	-51.500	-51.500	-51.500	-51.500	-51.500	-51.500	-51.500	-51.000	-51.000	-51.000	-51.000	-51.000	-51.000	-51.000	-50.500	-50.000	-50.000	-50.000	-50.000	-50.000	-49.500	-49.500	-49.500	-49.500	-49.500	-49.500	-49.000	-49.000	-49.000	-48.500	-48.500	-48.000	-47.500	-47.500	-47.000	-46.500	-46.500	-46.000	-45.500	-45.000	-44.500	-44.500	-44.000	-43.500	-43.000	-43.000	-42.500	-42.500	-42.000	-42.000	-41.500	-41.500	-41.000	-41.000	-40.500	-40.500	-40.000	-40.000	-39.500	-39.500	-39.000	-39.000	-38.500	-38.000	-38.000	-37.500	-37.500	-37.000	-37.000	-36.500	-36.500	-36.000	-36.000	-35.500	-35.500	-35.000	-35.000	-34.500	-34.500	-34.000	-34.000	-34.000	-33.500	-33.500	-33.000	-33.000	-32.500	-32.500	-32.000	-31.500	-31.000	-31.000	-30.500	-30.500	-30.000	-30.000	-29.500	-29.500	-29.000	-29.000	-29.000	-28.500	-28.500	-28.000	-28.000	-27.500	-27.000	-27.000	-26.500	-26.500	-26.000	-26.000	-25.500	-25.500	-25.000	-25.000	-24.500	-24.500	-24.000	-23.500	-23.500	-23.000	-22.500	-22.500	-22.000	-22.000	-21.500	-21.500	-21.000	-20.500	-20.000	-20.000	-20.000	-19.500	-19.500	-19.000	-18.500	-18.500	-18.000	-17.500	-17.500	-17.000	-16.500	-16.500	-16.000	-15.500	-15.500	-15.000	-14.500	-14.000	-14.000	-13.500	-13.000	-12.500	-12.000	-12.000	-11.500	-11.500	-11.500	-11.000	-11.000	-10.500	-10.000	-10.000	-9.500	-9.000	-8.500	-8.000	-7.500	-7.000	-7.000	-6.500	-6.500	-6.500	-6.000	-6.000	-5.500	-5.500	-5.500	-5.000	-4.500	-4.500	-4.000	-3.500	-3.500	-3.000	-2.500	-2.500	-2.000	-2.000	-1.500	-1.000	-0.500	-0.500	0.000	0.000	0.500	0.500	1.000	1.000	1.000	1.500	1.500	2.000	2.000	100.000	80.000	101.000	98.000	95.000	92.000	82.000	75.000	69.000	64.000	60.000	56.000	52.000	47.000	44.000	42.000	40.000	37.000	35.000	33.000	31.000	29.000	26.000	25.000	21.000	19.000	19.000	15.000	14.000	11.000	9.000	6.000	5.000	5.000	5.000	5.000	5.000	5.000	5.000	4.000	5.000	5.000	5.000	5.000	5.000	5.000	5.000	5.000	5.000	5.000	5.000	5.000	5.000	5.000	5.000	7.000	7.000	9.000	15.000	17.000	21.000	23.000	28.000	30.000	36.000	37.000	40.000	42.000	43.000	45.000	45.000	47.000	49.000	50.000	52.000	54.000	55.000	57.000	59.000	61.000	63.000	65.000	65.000	67.000	67.000	67.000	67.000	67.000	67.000	67.000	67.000	67.000	67.000	66.000	66.000	66.000	66.000	66.000	67.000	67.000	67.000	67.000	67.000	67.000	67.000	68.000	67.000	68.000	68.000	68.000	68.000	68.000	68.000	68.000	68.000	68.000	68.000	68.000	67.000	67.000	67.000	67.000	67.000	67.000	67.000	67.000	67.000	67.000	67.000	67.000	67.000	67.000	67.000	67.000	67.000	67.000	66.000	66.000	66.000	66.000	66.000	65.000	65.000	64.000	64.000	64.000	64.000	64.000	64.000	64.000	63.000
-55.500	-55.000	-54.500	-54.000	-53.500	-53.000	-52.500	-52.000	-51.500	-51.000	-50.500	-50.000	-49.500	-49.000	-48.500	-48.000	-48.500	-48.500	-48.000	-48.000	-47.500	-47.500	-47.000	-47.000	-46.500	-46.000	-46.000	-45.500	-45.500	-45.500	-46.000	-46.500	-47.000	-47.000	-47.500	-48.000	-48.500	-49.000	-49.500	-49.500	-50.000	-50.500	-51.000	-51.500	-52.000	-52.000	-52.500	-53.000	-53.000	-53.000	-53.000	-53.000	-52.500	-52.500	-52.000	-52.000	-52.000	-51.500	-51.500	-51.500	-51.000	-51.000	-51.000	-51.000	-51.000	-51.000	-51.000	-50.500	-50.500	-50.500	-50.500	-50.500	-50.500	-50.500	-50.000	-49.500	-49.500	-49.500	-49.500	-49.500	-49.000	-49.000	-49.000	-49.000	-49.000	-49.000	-48.500	-48.500	-48.500	-48.000	-48.000	-47.500	-47.000	-47.000	-46.500	-46.000	-46.000	-45.500	-45.000	-44.500	-44.000	-44.000	-43.500	-43.000	-42.500	-42.500	-42.000	-42.000	-41.500	-41.500	-41.000	-41.000	-40.500	-40.500	-40.000	-40.000	-39.500	-39.500	-39.000	-39.000	-38.500	-38.500	-38.000	-37.500	-37.500	-37.000	-37.000	-36.500	-36.500	-36.000	-36.000	-35.500	-35.500	-35.000	-35.000	-34.500	-34.500	-34.000	-34.000	-33.500	-33.500	-33.500	-33.000	-33.000	-32.500	-32.500	-32.000	-32.000	-31.500	-31.000	-30.500	-30.500	-30.000	-30.000	-29.500	-29.500	-29.000	-29.000	-28.500	-28.500	-28.500	-28.000	-28.000	-27.500	-27.500	-27.000	-26.500	-26.500	-26.000	-26.000	-25.500	-25.500	-25.000	-25.000	-24.500	-24.500	-24.000	-24.000	-23.500	-23.000	-23.000	-22.500	-22.000	-22.000	-21.500	-21.500	-21.000	-21.000	-20.500	-20.000	-19.500	-19.500	-19.500	-19.000	-19.000	-18.500	-18.000	-18.000	-17.500	-17.000	-17.000	-16.500	-16.000	-16.000	-15.500	-15.000	-15.000	-14.500	-14.000	-13.500	-13.500	-13.000	-12.500	-12.000	-11.500	-11.500	-11.000	-11.000	-11.000	-10.500	-10.500	-10.000	-9.500	-9.500	-9.000	-8.500	-8.000	-7.500	-7.000	-6.500	-6.500	-6.000	-6.000	-6.000	-5.500	-5.500	-5.000	-5.000	-5.000	-4.500	-4.000	-4.000	-3.500	-3.000	-3.000	-2.500	-2.000	-2.000	-1.500	-1.500	-1.000	-0.500	0.000	0.000	0.500	0.500	1.000	1.000	1.500	1.500	1.500	2.000	2.000	93.000	98.000	102.000	102.000	102.000	99.000	96.000	94.000	86.000	79.000	73.000	68.000	60.000	56.000	52.000	49.000	46.000	42.000	39.000	36.000	33.000	32.000	29.000	27.000	26.000	24.000	20.000	19.000	16.000	14.000	11.000	9.000	6.000	5.000	5.000	5.000	5.000	5.000	5.000	5.000	5.000	4.000	5.000	5.000	5.000	5.000	5.000	5.000	5.000	5.000	5.000	5.000	5.000	5.000	5.000	5.000	5.000	6.000	7.000	8.000	15.000	18.000	21.000	23.000	28.000	32.000	36.000	38.000	40.000	42.000	44.000	46.000	48.000	49.000	52.000	52.000	54.000	55.000	57.000	59.000	61.000	61.000	63.000	64.000	65.000	67.000	67.000	67.000	68.000	68.000	68.000	67.000	67.000	67.000	67.000	67.000	66.000	66.000	66.000	66.000	67.000	67.000	67.000	67.000	67.000	67.000	68.000	68.000	67.000	68.000	68.000	68.000	68.000	68.000	68.000	68.000	68.000	68.000	68.000	67.000	67.000	67.000	67.000	67.000	67.000	67.000	67.000	67.000	67.000	67.000	67.000	67.000	67.000	67.000	67.000	67.000	67.000	67.000	66.000	66.000	66.000	66.000	66.000	65.000	65.000	65.000	65.000	64.000	64.000	64.000	64.000	64.000	64.000
-55.000	-54.500	-54.000	-53.500	-53.000	-52.500	-52.000	-51.500	-51.000	-50.500	-50.000	-49.500	-49.000	-48.500	-48.000	-47.500	-48.000	-48.000	-47.500	-47.500	-47.000	-47.000	-46.500	-46.500	-46.000	-45.500	-45.500	-45.000	-45.000	-45.000	-45.500	-46.000	-46.500	-46.500	-47.000	-47.500	-48.000	-48.500	-49.000	-49.000	-49.500	-50.000	-50.500	-51.000	-51.500	-51.500	-52.000	-52.500	-52.500	-52.500	-52.500	-52.500	-52.000	-52.000	-51.500	-51.500	-51.500	-51.000	-51.000	-51.000	-50.500	-50.500	-50.500	-50.500	-50.500	-50.500	-50.500	-50.000	-50.000	-50.000	-50.000	-50.000	-50.000	-50.000	-49.500	-49.000	-49.000	-49.000	-49.000	-49.000	-48.500	-48.500	-48.500	-48.500	-48.500	-48.500	-48.000	-48.000	-48.000	-47.500	-47.500	-47.000	-46.500	-46.500	-46.000	-45.500	-45.500	-45.000	-44.500	-44.000	-43.500	-43.500	-43.000	-42.500	-42.000	-42.000	-41.500	-41.500	-41.000	-41.000	-40.500	-40.500	-40.000	-40.000	-39.500	-39.500	-39.000	-39.000	-38.500	-38.500	-38.000	-38.000	-37.500	-37.000	-37.000	-36.500	-36.500	-36.000	-36.000	-35.500	-35.500	-35.000	-35.000	-34.500	-34.500	-34.000	-34.000	-33.500	-33.500	-33.000	-33.000	-33.000	-32.500	-32.500	-32.000	-32.000	-31.500	-31.500	-31.000	-30.500	-30.000	-30.000	-29.500	-29.500	-29.000	-29.000	-28.500	-28.500	-28.000	-28.000	-28.000	-27.500	-27.500	-27.000	-27.000	-26.500	-26.000	-26.000	-25.500	-25.500	-25.000	-25.000	-24.500	-24.500	-24.000	-24.000	-23.500	-23.500	-23.000	-22.500	-22.500	-22.000	-21.500	-21.500	-21.000	-21.000	-20.500	-20.500	-20.000	-19.500	-19.000	-19.000	-19.000	-18.500	-18.500	-18.000	-17.500	-17.500	-17.000	-16.500	-16.500	-16.000	-15.500	-15.500	-15.000	-14.500	-14.500	-14.000	-13.500	-13.000	-13.000	-12.500	-12.000	-11.500	-11.000	-11.000	-10.500	-10.500	-10.500	-10.000	-10.000	-9.500	-9.000	-9.000	-8.500	-8.000	-7.500	-7.000	-6.500	-6.000	-6.000	-5.500	-5.500	-5.500	-5.000	-5.000	-4.500	-4.500	-4.500	-4.000	-3.500	-3.500	-3.000	-2.500	-2.500	-2.000	-1.500	-1.500	-1.000	-1.000	-0.500	0.000	0.500	0.500	1.000	1.000	1.500	1.500	2.000	2.000	2.000	91.000	96.000	99.000	102.000	102.000	102.000	101.000	99.000	96.000	95.000	88.000	82.000	77.000	73.000	64.000	60.000	56.000	53.000	49.000	43.000	40.000	36.000	34.000	32.000	28.000	26.000	24.000	23.000	20.000	18.000	16.000	14.000	12.000	10.000	7.000	5.000	5.000	5.000	5.000	5.000	5.000	5.000	5.000	4.000	5.000	5.000	5.000	5.000	5.000	5.000	5.000	5.000	5.000	5.000	5.000	5.000	5.000	5.000	5.000	6.000	6.000	8.000	13.000	18.000	21.000	24.000	27.000	32.000	35.000	38.000	41.000	42.000	44.000	46.000	47.000	49.000	51.000	52.000	54.000	55.000	57.000	59.000	61.000	62.000	64.000	65.000	66.000	67.000	67.000	68.000	68.000	68.000	68.000	68.000	67.000	67.000	67.000	67.000	67.000	66.000	66.000	66.000	67.000	67.000	67.000	67.000	67.000	67.000	67.000	68.000	68.000	68.000	68.000	68.000	68.000	68.000	68.000	68.000	68.000	68.000	68.000	67.000	67.000	67.000	67.000	67.000	67.000	67.000	68.000	67.000	67.000	67.000	67.000	67.000	67.000	67.000	67.000	67.000	67.000	66.000	66.000	66.000	66.000	66.000	66.000	65.000	65.000	65.000	65.000	65.000	65.000	65.000	65.000	64.000	64.000
-54.500	-54.000	-53.500	-53.000	-52.500	-52.000	-51.500	-51.000	-50.500	-50.000	-49.500	-49.000	-48.500	-48.000	-47.500	-47.000	-47.500	-47.500	-47.000	-47.000	-46.500	-46.500	-46.000	-46.000	-45.500	-45.000	-45.000	-44.500	-44.500	-44.500	-45.000	-45.500	-46.000	-46.000	-46.500	-47.000	-47.500	-48.000	-48.500	-48.500	-49.000	-49.500	-50.000	-50.500	-51.000	-51.000	-51.500	-52.000	-52.000	-52.000	-52.000	-52.000	-51.500	-51.500	-51.000	-51.000	-51.000	-50.500	-50.500	-50.500	-50.000	-50.000	-50.000	-50.000	-50.000	-50.000	-50.000	-49.500	-49.500	-49.500	-49.500	-49.500	-49.500	-49.500	-49.000	-48.500	-48.500	-48.500	-48.500	-48.500	-48.000	-48.000	-48.000	-48.000	-48.000	-48.000	-47.500	-47.500	-47.500	-47.000	-47.000	-46.500	-46.000	-46.000	-45.500	-45.000	-45.000	-44.500	-44.000	-43.500	-43.000	-43.000	-42.500	-42.000	-41.500	-41.500	-41.000	-41.000	-40.500	-40.500	-40.000	-40.000	-39.500	-39.500	-39.000	-39.000	-38.500	-38.500	-38.000	-38.000	-37.500	-37.500	-37.000	-36.500	-36.500	-36.000	-36.000	-35.500	-35.500	-35.000	-35.000	-34.500	-34.500	-34.000	-34.000	-33.500	-33.500	-33.000	-33.000	-32.500	-32.500	-32.500	-32.000	-32.000	-31.500	-31.500	-31.000	-31.000	-30.500	-30.000	-29.500	-29.500	-29.000	-29.000	-28.500	-28.500	-28.000	-28.000	-27.500	-27.500	-27.500	-27.000	-27.000	-26.500	-26.500	-26.000	-25.500	-25.500	-25.000	-25.000	-24.500	-24.500	-24.000	-24.000	-23.500	-23.500	-23.000	-23.000	-22.500	-22.000	-22.000	-21.500	-21.000	-21.000	-20.500	-20.500	-20.000	-20.000	-19.500	-19.000	-18.500	-18.500	-18.500	-18.000	-18.000	-17.500	-17.000	-17.000	-16.500	-16.000	-16.000	-15.500	-15.000	-15.000	-14.500	-14.000	-14.000	-13.500	-13.000	-12.500	-12.500	-12.000	-11.500	-11.000	-10.500	-10.500	-10.000	-10.000	-10.000	-9.500	-9.500	-9.000	-8.500	-8.500	-8.000	-7.500	-7.000	-6.500	-6.000	-5.500	-5.500	-5.000	-5.000	-5.000	-4.500	-4.500	-4.000	-4.000	-4.000	-3.500	-3.000	-3.000	-2.500	-2.000	-2.000	-1.500	-1.000	-1.000	-0.500	-0.500	0.000	0.500	1.000	1.000	1.500	1.500	2.000	2.000	81.000	87.000	90.000	94.000	97.000	100.000	102.000	101.000	101.000	98.000	97.000	94.000	89.000	83.000	78.000	75.000	75.000	69.000	64.000	60.000	56.000	51.000	46.000	42.000	38.000	35.000	32.000	28.000	26.000	23.000	22.000	19.000	18.000	16.000	14.000	12.000	10.000	9.000	5.000	5.000	5.000	5.000	5.000	5.000	5.000	5.000	4.000	5.000	5.000	5.000	5.000	5.000	5.000	5.000	5.000	5.000	5.000	5.000	5.000	5.000	5.000	5.000	6.000	6.000	7.000	11.000	19.000	20.000	23.000	26.000	31.000	35.000	37.000	40.000	42.000	44.000	46.000	48.000	49.000	51.000	53.000	54.000	56.000	57.000	59.000	61.000	62.000	63.000	63.000	66.000	67.000	67.000	68.000	68.000	68.000	68.000	68.000	67.000	67.000	67.000	66.000	66.000	66.000	66.000	67.000	67.000	67.000	67.000	67.000	67.000	67.000	67.000	68.000	68.000	68.000	68.000	68.000	68.000	68.000	68.000	68.000	68.000	68.000	67.000	67.000	67.000	67.000	67.000	67.000	67.000	67.000	68.000	68.000	68.000	67.000	68.000	68.000	67.000	67.000	67.000	67.000	67.000	66.000	66.000	66.000	66.000	66.000	66.000	66.000	66.000	66.000	66.000	65.000	65.000	65.000	65.000	65.000	65.000
-54.000	-53.500	-53.000	-52.500	-52.000	-51.500	-51.000	-50.500	-50.000	-49.500	-49.000	-48.500	-48.000	-47.500	-47.000	-46.500	-47.000	-47.000	-46.500	-46.500	-46.000	-46.000	-45.500	-45.500	-45.000	-44.500	-44.500	-44.000	-44.000	-44.000	-44.500	-45.000	-45.500	-45.500	-46.000	-46.500	-47.000	-47.500	-48.000	-48.000	-48.500	-49.000	-49.500	-50.000	-50.500	-50.500	-51.000	-51.500	-51.500	-51.500	-51.500	-51.500	-51.000	-51.000	-50.500	-50.500	-50.500	-50.000	-50.000	-50.000	-49.500	-49.500	-49.500	-49.500	-49.500	-49.500	-49.500	-49.000	-49.000	-49.000	-49.000	-49.000	-49.000	-49.000	-48.500	-48.000	-48.000	-48.000	-48.000	-48.000	-47.500	-47.500	-47.500	-47.500	-47.500	-47.500	-47.000	-47.000	-47.000	-46.500	-46.500	-46.000	-45.500	-45.500	-45.000	-44.500	-44.500	-44.000	-43.500	-43.000	-42.500	-42.500	-42.000	-41.500	-41.000	-41.000	-40.500	-40.500	-40.000	-40.000	-39.500	-39.500	-39.000	-39.000	-38.500	-38.500	-38.000	-38.000	-37.500	-37.500	-37.000	-37.000	-36.500	-36.000	-36.000	-35.500	-35.500	-35.000	-35.000	-34.500	-34.500	-34.000	-34.000	-33.500	-33.500	-33.000	-33.000	-32.500	-32.500	-32.000	-32.000	-32.000	-31.500	-31.500	-31.000	-31.000	-30.500	-30.500	-30.000	-29.500	-29.000	-29.000	-28.500	-28.500	-28.000	-28.000	-27.500	-27.500	-27.000	-27.000	-27.000	-26.500	-26.500	-26.000	-26.000	-25.500	-25.000	-25.000	-24.500	-24.500	-24.000	-24.000	-23.500	-23.500	-23.000	-23.000	-22.500	-22.500	-22.000	-21.500	-21.500	-21.000	-20.500	-20.500	-20.000	-20.000	-19.500	-19.500	-19.000	-18.500	-18.000	-18.000	-18.000	-17.500	-17.500	-17.000	-16.500	-16.500	-16.000	-15.500	-15.500	-15.000	-14.500	-14.500	-14.000	-13.500	-13.500	-13.000	-12.500	-12.000	-12.000	-11.500	-11.000	-10.500	-10.000	-10.000	-9.500	-9.500	-9.500	-9.000	-9.000	-8.500	-8.000	-8.000	-7.500	-7.000	-6.500	-6.000	-5.500	-5.000	-5.000	-4.500	-4.500	-4.500	-4.000	-4.000	-3.500	-3.500	-3.500	-3.000	-2.500	-2.500	-2.000	-1.500	-1.500	-1.000	-0.500	-0.500	0.000	0.000	0.500	1.000	1.500	1.500	2.000	2.000	81.000	83.000	86.000	90.000	95.000	96.000	98.000	101.000	101.000	101.000	100.000	99.000	96.000	94.000	88.000	83.000	78.000	76.000	70.000	65.000	60.000	56.000	51.000	47.000	43.000	39.000	35.000	35.000	33.000	29.000	26.000	23.000	22.000	19.000	17.000	16.000	13.000	11.000	10.000	9.000	6.000	6.000	5.000	5.000	5.000	5.000	5.000	5.000	5.000	4.000	5.000	5.000	5.000	5.000	5.000	5.000	5.000	5.000	5.000	5.000	5.000	5.000	5.000	6.000	6.000	7.000	9.000	18.000	20.000	23.000	25.000	28.000	30.000	33.000	36.000	39.000	40.000	44.000	46.000	47.000	49.000	51.000	52.000	54.000	55.000	57.000	58.000	60.000	62.000	63.000	63.000	65.000	67.000	68.000	68.000	68.000	68.000	68.000	68.000	68.000	67.000	67.000	66.000	66.000	66.000	66.000	67.000	67.000	67.000	67.000	67.000	67.000	68.000	68.000	68.000	68.000	68.000	68.000	68.000	68.000	68.000	68.000	68.000	68.000	68.000	67.000	67.000	67.000	67.000	67.000	67.000	67.000	67.000	68.000	68.000	68.000	68.000	68.000	68.000	68.000	67.000	67.000	67.000	67.000	66.000	66.000	66.000	66.000	66.000	66.000	66.000	66.000	66.000	66.000	66.000	65.000	65.000	65.000	65.000	65.000
-53.500	-53.000	-52.500	-52.000	-51.500	-51.000	-50.500	-50.000	-49.500	-49.000	-48.500	-48.000	-47.500	-47.000	-46.500	-46.000	-46.500	-46.500	-46.000	-46.000	-45.500	-45.500	-45.000	-45.000	-44.500	-44.000	-44.000	-43.500	-43.500	-43.500	-44.000	-44.500	-45.000	-45.000	-45.500	-46.000	-46.500	-47.000	-47.500	-47.500	-48.000	-48.500	-49.000	-49.500	-50.000	-50.000	-50.500	-51.000	-51.000	-51.000	-51.000	-51.000	-50.500	-50.500	-50.000	-50.000	-50.000	-49.500	-49.500	-49.500	-49.000	-49.000	-49.000	-49.000	-49.000	-49.000	-49.000	-48.500	-48.500	-48.500	-48.500	-48.500	-48.500	-48.500	-48.000	-47.500	-47.500	-47.500	-47.500	-47.500	-47.000	-47.000	-47.000	-47.000	-47.000	-47.000	-46.500	-46.500	-46.500	-46.000	-46.000	-45.500	-45.000	-45.000	-44.500	-44.000	-44.000	-43.500	-43.000	-42.500	-42.000	-42.000	-41.500	-41.000	-40.500	-40.500	-40.000	-40.000	-39.500	-39.500	-39.000	-39.000	-38.500	-38.500	-38.000	-38.000	-37.500	-37.500	-37.000	-37.000	-36.500	-36.500	-36.000	-35.500	-35.500	-35.000	-35.000	-34.500	-34.500	-34.000	-34.000	-33.500	-33.500	-33.000	-33.000	-32.500	-32.500	-32.000	-32.000	-31.500	-31.500	-31.500	-31.000	-31.000	-30.500	-30.500	-30.000	-30.000	-29.500	-29.000	-28.500	-28.500	-28.000	-28.000	-27.500	-27.500	-27.000	-27.000	-26.500	-26.500	-26.500	-26.000	-26.000	-25.500	-25.500	-25.000	-24.500	-24.500	-24.000	-24.000	-23.500	-23.500	-23.000	-23.000	-22.500	-22.500	-22.000	-22.000	-21.500	-21.000	-21.000	-20.500	-20.000	-20.000	-19.500	-19.500	-19.000	-19.000	-18.500	-18.000	-17.500	-17.500	-17.500	-17.000	-17.000	-16.500	-16.000	-16.000	-15.500	-15.000	-15.000	-14.500	-14.000	-14.000	-13.500	-13.000	-13.000	-12.500	-12.000	-11.500	-11.500	-11.000	-10.500	-10.000	-9.500	-9.500	-9.000	-9.000	-9.000	-8.500	-8.500	-8.000	-7.500	-7.500	-7.000	-6.500	-6.000	-5.500	-5.000	-4.500	-4.500	-4.000	-4.000	-4.000	-3.500	-3.500	-3.000	-3.000	-3.000	-2.500	-2.000	-2.000	-1.500	-1.000	-1.000	-0.500	0.000	0.000	0.500	0.500	1.000	1.500	2.000	2.000	81.000	85.000	86.000	87.000	91.000	94.000	96.000	97.000	99.000	101.000	101.000	101.000	100.000	98.000	95.000	91.000	87.000	82.000	78.000	74.000	69.000	66.000	60.000	56.000	50.000	47.000	43.000	39.000	35.000	33.000	31.000	26.000	24.000	22.000	19.000	17.000	16.000	13.000	13.000	11.000	9.000	9.000	6.000	6.000	6.000	5.000	5.000	5.000	5.000	5.000	5.000	5.000	5.000	5.000	5.000	5.000	5.000	5.000	5.000	5.000	5.000	5.000	5.000	5.000	5.000	6.000	6.000	7.000	10.000	18.000	20.000	22.000	24.000	27.000	31.000	34.000	37.000	38.000	42.000	45.000	46.000	49.000	50.000	51.000	52.000	54.000	56.000	57.000	58.000	60.000	62.000	63.000	64.000	64.000	67.000	68.000	68.000	68.000	68.000	68.000	68.000	68.000	67.000	67.000	67.000	66.000	66.000	66.000	66.000	67.000	67.000	67.000	67.000	68.000	68.000	68.000	68.000	68.000	68.000	68.000	68.000	68.000	68.000	68.000	68.000	68.000	67.000	67.000	67.000	67.000	67.000	67.000	67.000	67.000	67.000	68.000	68.000	68.000	68.000	68.000	68.000	68.000	67.000	67.000	67.000	67.000	67.000	67.000	66.000	66.000	66.000	66.000	66.000	66.000	66.000	66.000	66.000	66.000	66.000	66.000	65.000	65.000
-53.000	-52.500	-52.000	-51.500	-51.000	-50.500	-50.000	-49.500	-49.000	-48.500	-48.000	-47.500	-47.000	-46.500	-46.000	-45.500	-46.000	-46.000	-45.500	-45.500	-45.000	-45.000	-44.500	-44.500	-44.000	-43.500	-43.500	-43.000	-43.000	-43.000	-43.500	-44.000	-44.500	-44.500	-45.000	-45.500	-46.000	-46.500	-47.000	-47.000	-47.500	-48.000	-48.500	-49.000	-49.500	-49.500	-50.000	-50.500	-50.500	-50.500	-50.500	-50.500	-50.000	-50.000	-49.500	-49.500	-49.500	-49.000	-49.000	-49.000	-48.500	-48.500	-48.500	-48.500	-48.500	-48.500	-48.500	-48.000	-48.000	-48.000	-48.000	-48.000	-48.000	-48.000	-47.500	-47.000	-47.000	-47.000	-47.000	-47.000	-46.500	-46.500	-46.500	-46.500	-46.500	-46.500	-46.000	-46.000	-46.000	-45.500	-45.500	-45.000	-44.500	-44.500	-44.000	-43.500	-43.500	-43.000	-42.500	-42.000	-41.500	-41.500	-41.000	-40.500	-40.000	-40.000	-39.500	-39.500	-39.000	-39.000	-38.500	-38.500	-38.000	-38.000	-37.500	-37.500	-37.000	-37.000	-36.500	-36.500	-36.000	-36.000	-35.500	-35.000	-35.000	-34.500	-34.500	-34.000	-34.000	-33.500	-33.500	-33.000	-33.000	-32.500	-32.500	-32.000	-32.000	-31.500	-31.500	-31.000	-31.000	-31.000	-30.500	-30.500	-30.000	-30.000	-29.500	-29.500	-29.000	-28.500	-28.000	-28.000	-27.500	-27.500	-27.000	-27.000	-26.500	-26.500	-26.000	-26.000	-26.000	-25.500	-25.500	-25.000	-25.000	-24.500	-24.000	-24.000	-23.500	-23.500	-23.000	-23.000	-22.500	-22.500	-22.000	-22.000	-21.500	-21.500	-21.000	-20.500	-20.500	-20.000	-19.500	-19.500	-19.000	-19.000	-18.500	-18.500	-18.000	-17.500	-17.000	-17.000	-17.000	-16.500	-16.500	-16.000	-15.500	-15.500	-15.000	-14.500	-14.500	-14.000	-13.500	-13.500	-13.000	-12.500	-12.500	-12.000	-11.500	-11.000	-11.000	-10.500	-10.000	-9.500	-9.000	-9.000	-8.500	-8.500	-8.500	-8.000	-8.000	-7.500	-7.000	-7.000	-6.500	-6.000	-5.500	-5.000	-4.500	-4.000	-4.000	-3.500	-3.500	-3.500	-3.000	-3.000	-2.500	-2.500	-2.500	-2.000	-1.500	-1.500	-1.000	-0.500	-0.500	0.000	0.500	0.500	1.000	1.000	1.500	2.000	80.000	84.000	88.000	90.000	91.000	91.000	94.000	96.000	97.000	98.000	100.000	101.000	101.000	101.000	99.000	97.000	94.000	90.000	86.000	80.000	75.000	72.000	68.000	66.000	59.000	55.000	49.000	46.000	42.000	40.000	34.000	32.000	31.000	27.000	24.000	22.000	19.000	17.000	16.000	13.000	11.000	10.000	9.000	6.000	5.000	5.000	6.000	5.000	5.000	5.000	5.000	5.000	5.000	5.000	4.000	5.000	5.000	5.000	5.000	5.000	5.000	5.000	5.000	5.000	5.000	5.000	5.000	6.000	6.000	7.000	10.000	17.000	18.000	21.000	23.000	25.000	29.000	33.000	35.000	37.000	42.000	44.000	46.000	48.000	50.000	53.000	54.000	55.000	57.000	58.000	60.000	61.000	63.000	64.000	64.000	64.000	66.000	68.000	68.000	68.000	68.000	68.000	68.000	68.000	67.000	67.000	66.000	66.000	66.000	66.000	66.000	67.000	67.000	67.000	68.000	68.000	68.000	68.000	68.000	68.000	68.000	68.000	68.000	68.000	68.000	68.000	68.000	68.000	67.000	67.000	67.000	67.000	67.000	67.000	67.000	67.000	68.000	68.000	68.000	68.000	68.000	68.000	68.000	68.000	67.000	67.000	67.000	67.000	67.000	67.000	67.000	66.000	66.000	66.000	66.000	66.000	66.000	66.000	66.000	66.000	66.000	66.000	66.000	66.000
-52.500	-52.000	-51.500	-51.000	-50.500	-50.000	-49.500	-49.000	-48.500	-48.000	-47.500	-47.000	-46.500	-46.000	-45.500	-45.000	-45.500	-45.500	-45.000	-45.000	-44.500	-44.500	-44.000	-44.000	-43.500	-43.000	-43.000	-42.500	-42.500	-42.500	-43.000	-43.500	-44.000	-44.000	-44.500	-45.000	-45.500	-46.000	-46.500	-46.500	-47.000	-47.500	-48.000	-48.500	-49.000	-49.000	-49.500	-50.000	-50.000	-50.000	-50.000	-50.000	-49.500	-49.500	-49.000	-49.000	-49.000	-48.500	-48.500	-48.500	-48.000	-48.000	-48.000	-48.000	-48.000	-48.000	-48.000	-47.500	-47.500	-47.500	-47.500	-47.500	-47.500	-47.500	-47.000	-46.500	-46.500	-46.500	-46.500	-46.500	-46.000	-46.000	-46.000	-46.000	-46.000	-46.000	-45.500	-45.500	-45.500	-45.000	-45.000	-44.500	-44.000	-44.000	-43.500	-43.000	-43.000	-42.500	-42.000	-41.500	-41.000	-41.000	-40.500	-40.000	-39.500	-39.500	-39.000	-39.000	-38.500	-38.500	-38.000	-38.000	-37.500	-37.500	-37.000	-37.000	-36.500	-36.500	-36.000	-36.000	-35.500	-35.500	-35.000	-34.500	-34.500	-34.000	-34.000	-33.500	-33.500	-33.000	-33.000	-32.500	-32.500	-32.000	-32.000	-31.500	-31.500	-31.000	-31.000	-30.500	-30.500	-30.500	-30.000	-30.000	-29.500	-29.500	-29.000	-29.000	-28.500	-28.000	-27.500	-27.500	-27.000	-27.000	-26.500	-26.500	-26.000	-26.000	-25.500	-25.500	-25.500	-25.000	-25.000	-24.500	-24.500	-24.000	-23.500	-23.500	-23.000	-23.000	-22.500	-22.500	-22.000	-22.000	-21.500	-21.500	-21.000	-21.000	-20.500	-20.000	-20.000	-19.500	-19.000	-19.000	-18.500	-18.500	-18.000	-18.000	-17.500	-17.000	-16.500	-16.500	-16.500	-16.000	-16.000	-15.500	-15.000	-15.000	-14.500	-14.000	-14.000	-13.500	-13.000	-13.000	-12.500	-12.000	-12.000	-11.500	-11.000	-10.500	-10.500	-10.000	-9.500	-9.000	-8.500	-8.500	-8.000	-8.000	-8.000	-7.500	-7.500	-7.000	-6.500	-6.500	-6.000	-5.500	-5.000	-4.500	-4.000	-3.500	-3.500	-3.000	-3.000	-3.000	-2.500	-2.500	-2.000	-2.000	-2.000	-1.500	-1.000	-1.000	-0.500	0.000	0.000	0.500	1.000	1.000	1.500	1.500	2.000	78.000	81.000	85.000	88.000	91.000	92.000	95.000	96.000	98.000	99.000	100.000	101.000	101.000	100.000	98.000	97.000	97.000	94.000	89.000	84.000	77.000	73.000	69.000	65.000	62.000	58.000	54.000	49.000	45.000	41.000	39.000	33.000	32.000	31.000	27.000	25.000	22.000	20.000	18.000	16.000	13.000	12.000	10.000	9.000	6.000	5.000	5.000	5.000	5.000	5.000	5.000	5.000	5.000	5.000	4.000	5.000	5.000	5.000	5.000	5.000	5.000	5.000	5.000	5.000	5.000	5.000	5.000	5.000	6.000	6.000	8.000	10.000	16.000	18.000	19.000	21.000	23.000	27.000	31.000	33.000	37.000	41.000	43.000	45.000	48.000	51.000	52.000	54.000	55.000	57.000	58.000	60.000	61.000	62.000	64.000	65.000	66.000	68.000	68.000	68.000	68.000	68.000	68.000	68.000	68.000	67.000	67.000	66.000	66.000	66.000	66.000	66.000	66.000	67.000	67.000	67.000	68.000	68.000	68.000	68.000	68.000	68.000	68.000	68.000	68.000	68.000	68.000	68.000	68.000	67.000	67.000	67.000	67.000	67.000	67.000	67.000	67.000	68.000	68.000	68.000	68.000	68.000	68.000	68.000	67.000	67.000	67.000	67.000	67.000	67.000	67.000	67.000	67.000	66.000	66.000	66.000	67.000	66.000	66.000	66.000	66.000	66.000	66.000	66.000	66.000
-52.000	-51.500	-51.000	-50.500	-50.000	-49.500	-49.000	-48.500	-48.000	-47.500	-47.000	-46.500	-46.000	-45.500	-45.000	-44.500	-45.000	-45.000	-44.500	-44.500	-44.000	-44.000	-43.500	-43.500	-43.000	-42.500	-42.500	-42.000	-42.000	-42.000	-42.500	-43.000	-43.500	-43.500	-44.000	-44.500	-45.000	-45.500	-46.000	-46.000	-46.500	-47.000	-47.500	-48.000	-48.500	-48.500	-49.000	-49.500	-49.500	-49.500	-49.500	-49.500	-49.000	-49.000	-48.500	-48.500	-48.500	-48.000	-48.000	-48.000	-47.500	-47.500	-47.500	-47.500	-47.500	-47.500	-47.500	-47.000	-47.000	-47.000	-47.000	-47.000	-47.000	-47.000	-46.500	-46.000	-46.000	-46.000	-46.000	-46.000	-45.500	-45.500	-45.500	-45.500	-45.500	-45.500	-45.000	-45.000	-45.000	-44.500	-44.500	-44.000	-43.500	-43.500	-43.000	-42.500	-42.500	-42.000	-41.500	-41.000	-40.500	-40.500	-40.000	-39.500	-39.000	-39.000	-38.500	-38.500	-38.000	-38.000	-37.500	-37.500	-37.000	-37.000	-36.500	-36.500	-36.000	-36.000	-35.500	-35.500	-35.000	-35.000	-34.500	-34.000	-34.000	-33.500	-33.500	-33.000	-33.000	-32.500	-32.500	-32.000	-32.000	-31.500	-31.500	-31.000	-31.000	-30.500	-30.500	-30.000	-30.000	-30.000	-29.500	-29.500	-29.000	-29.000	-28.500	-28.500	-28.000	-27.500	-27.000	-27.000	-26.500	-26.500	-26.000	-26.000	-25.500	-25.500	-25.000	-25.000	-25.000	-24.500	-24.500	-24.000	-24.000	-23.500	-23.000	-23.000	-22.500	-22.500	-22.000	-22.000	-21.500	-21.500	-21.000	-21.000	-20.500	-20.500	-20.000	-19.500	-19.500	-19.000	-18.500	-18.500	-18.000	-18.000	-17.500	-17.500	-17.000	-16.500	-16.000	-16.000	-16.000	-15.500	-15.500	-15.000	-14.500	-14.500	-14.000	-13.500	-13.500	-13.000	-12.500	-12.500	-12.000	-11.500	-11.500	-11.000	-10.500	-10.000	-10.000	-9.500	-9.000	-8.500	-8.000	-8.000	-7.500	-7.500	-7.500	-7.000	-7.000	-6.500	-6.000	-6.000	-5.500	-5.000	-4.500	-4.000	-3.500	-3.000	-3.000	-2.500	-2.500	-2.500	-2.000	-2.000	-1.500	-1.500	-1.500	-1.000	-0.500	-0.500	0.000	0.500	0.500	1.000	1.500	1.500	2.000	2.000	78.000	79.000	83.000	86.000	88.000	90.000	92.000	95.000	96.000	97.000	99.000	100.000	100.000	101.000	101.000	98.000	96.000	93.000	87.000	83.000	74.000	70.000	66.000	63.000	57.000	56.000	56.000	53.000	47.000	44.000	40.000	38.000	33.000	31.000	30.000	26.000	25.000	21.000	20.000	18.000	16.000	13.000	12.000	10.000	10.000	6.000	6.000	5.000	5.000	5.000	5.000	5.000	5.000	5.000	5.000	5.000	5.000	5.000	5.000	5.000	5.000	5.000	5.000	5.000	5.000	5.000	5.000	6.000	6.000	7.000	7.000	8.000	9.000	13.000	15.000	18.000	21.000	23.000	26.000	29.000	33.000	36.000	39.000	42.000	45.000	46.000	49.000	51.000	53.000	55.000	57.000	58.000	60.000	61.000	62.000	65.000	65.000	67.000	68.000	68.000	69.000	68.000	68.000	68.000	68.000	67.000	67.000	66.000	66.000	66.000	66.000	66.000	67.000	67.000	67.000	67.000	67.000	67.000	68.000	68.000	68.000	68.000	68.000	68.000	68.000	68.000	68.000	68.000	68.000	67.000	67.000	67.000	67.000	67.000	67.000	67.000	67.000	67.000	68.000	68.000	68.000	68.000	68.000	68.000	67.000	68.000	67.000	67.000	67.000	67.000	67.000	67.000	67.000	67.000	67.000	67.000	67.000	67.000	67.000	66.000	66.000	66.000	67.000	66.000	66.000	66.000
-51.500	-51.000	-50.500	-50.000	-49.500	-49.000	-48.500	-48.000	-47.500	-47.000	-46.500	-46.000	-45.500	-45.000	-44.500	-44.000	-44.500	-44.500	-44.000	-44.000	-43.500	-43.500	-43.000	-43.000	-42.500	-42.000	-42.000	-41.500	-41.500	-41.500	-42.000	-42.500	-43.000	-43.000	-43.500	-44.000	-44.500	-45.000	-45.500	-45.500	-46.000	-46.500	-47.000	-47.500	-48.000	-48.000	-48.500	-49.000	-49.000	-49.000	-49.000	-49.000	-48.500	-48.500	-48.000	-48.000	-48.000	-47.500	-47.500	-47.500	-47.000	-47.000	-47.000	-47.000	-47.000	-47.000	-47.000	-46.500	-46.500	-46.500	-46.500	-46.500	-46.500	-46.500	-46.000	-45.500	-45.500	-45.500	-45.500	-45.500	-45.000	-45.000	-45.000	-45.000	-45.000	-45.000	-44.500	-44.500	-44.500	-44.000	-44.000	-43.500	-43.000	-43.000	-42.500	-42.000	-42.000	-41.500	-41.000	-40.500	-40.000	-40.000	-39.500	-39.000	-38.500	-38.500	-38.000	-38.000	-37.500	-37.500	-37.000	-37.000	-36.500	-36.500	-36.000	-36.000	-35.500	-35.500	-35.000	-35.000	-34.500	-34.500	-34.000	-33.500	-33.500	-33.000	-33.000	-32.500	-32.500	-32.000	-32.000	-31.500	-31.500	-31.000	-31.000	-30.500	-30.500	-30.000	-30.000	-29.500	-29.500	-29.500	-29.000	-29.000	-28.500	-28.500	-28.000	-28.000	-27.500	-27.000	-26.500	-26.500	-26.000	-26.000	-25.500	-25.500	-25.000	-25.000	-24.500	-24.500	-24.500	-24.000	-24.000	-23.500	-23.500	-23.000	-22.500	-22.500	-22.000	-22.000	-21.500	-21.500	-21.000	-21.000	-20.500	-20.500	-20.000	-20.000	-19.500	-19.000	-19.000	-18.500	-18.000	-18.000	-17.500	-17.500	-17.000	-17.000	-16.500	-16.000	-15.500	-15.500	-15.500	-15.000	-15.000	-14.500	-14.000	-14.000	-13.500	-13.000	-13.000	-12.500	-12.000	-12.000	-11.500	-11.000	-11.000	-10.500	-10.000	-9.500	-9.500	-9.000	-8.500	-8.000	-7.500	-7.500	-7.000	-7.000	-7.000	-6.500	-6.500	-6.000	-5.500	-5.500	-5.000	-4.500	-4.000	-3.500	-3.000	-2.500	-2.500	-2.000	-2.000	-2.000	-1.500	-1.500	-1.000	-1.000	-1.000	-0.500	0.000	0.000	0.500	1.000	1.000	1.500	2.000	2.000	74.000	76.000	78.000	80.000	83.000	86.000	88.000	90.000	92.000	95.000	96.000	97.000	99.000	100.000	100.000	100.000	100.000	98.000	96.000	93.000	87.000	83.000	74.000	69.000	64.000	58.000	54.000	54.000	50.000	46.000	43.000	39.000	37.000	32.000	31.000	30.000	26.000	26.000	25.000	21.000	20.000	18.000	16.000	13.000	11.000	10.000	10.000	6.000	6.000	5.000	5.000	5.000	5.000	5.000	5.000	5.000	5.000	5.000	5.000	5.000	5.000	5.000	5.000	5.000	5.000	5.000	5.000	5.000	5.000	5.000	6.000	6.000	7.000	9.000	10.000	14.000	17.000	20.000	22.000	26.000	29.000	29.000	33.000	36.000	39.000	41.000	43.000	47.000	51.000	52.000	52.000	55.000	57.000	58.000	60.000	62.000	63.000	65.000	65.000	67.000	67.000	68.000	68.000	69.000	69.000	68.000	68.000	68.000	67.000	67.000	66.000	66.000	66.000	66.000	67.000	67.000	67.000	67.000	67.000	67.000	67.000	68.000	68.000	68.000	68.000	68.000	68.000	68.000	68.000	68.000	68.000	68.000	67.000	67.000	67.000	67.000	67.000	67.000	67.000	67.000	67.000	68.000	68.000	68.000	68.000	68.000	68.000	67.000	67.000	67.000	67.000	67.000	67.000	67.000	67.000	67.000	67.000	67.000	67.000	67.000	67.000	67.000	67.000	67.000	67.000	66.000	66.000	66.000
