ncols         328
nrows         31
xllcorner     564289.587152
yllcorner     6985127.76012
cellsize      20
NODATA_value  -9999
-5.797637 -5.834451 -5.871201 -5.907912 -5.944617 -5.98156 -6.036467 -6.102811 -6.168697 -6.233978 -6.298609 -6.362499 -6.424995 -6.435418 -6.375965 -6.315453 -6.254799 -6.194117 -6.133471 -6.07306 -6.029843 -6.038921 -6.049102 -6.059656 -6.070501 -6.081587 -6.092764 -6.092842 -6.039357 -5.977915 -5.915979 -5.853671 -5.791031 -5.728135 -5.668336 -5.641505 -5.624157 -5.607019 -5.590007 -5.573138 -5.556545 -5.541547 -5.624159 -5.754321 -5.885819 -6.018173 -6.151291 -6.285113 -6.419327 -6.531251 -6.620204 -6.708796 -6.797304 -6.885749 -6.974091 -7.062017 -7.123147 -7.127974 -7.13202 -7.136054 -7.140152 -7.144331 -7.148568 -7.150234 -7.141533 -7.131955 -7.122356 -7.112749 -7.10312 -7.093391 -7.078359 -7.027749 -6.968858 -6.909492 -6.849741 -6.789625 -6.729154 -6.668372 -6.608852 -6.550147 -6.491781 -6.433755 -6.376086 -6.318824 -6.262429 -6.240958 -6.245538 -6.250704 -6.256143 -6.261793 -6.267575 -6.27298 -6.23825 -6.141983 -6.044618 -5.946973 -5.84915 -5.751217 -5.6534 -5.575653 -5.565645 -5.558142 -5.551363 -5.545214 -5.539678 -5.534788 -5.533794 -5.550352 -5.570316 -5.590937 -5.612159 -5.633933 -5.656081 -5.670712 -5.591509 -5.484171 -5.377409 -5.271519 -5.166546 -5.062461 -4.95877 -4.818376 -4.657486 -4.496174 -4.334644 -4.172907 -4.010889 -3.847938 -3.633532 -3.360396 -3.085076 -2.80831 -2.530195 -2.250827 -1.970695 -1.731895 -1.594849 -1.45898 -1.322886 -1.186445 -1.049642 -0.9125526 -0.7867288 -0.7098037 -0.6381164 -0.5664049 -0.492832 -0.3760341 -0.2071911 -0.1630468 -0.02974498 0.003772715 0.1718382 0.7739389 0.8630633 0.9211084 0.9607491 0.8859524 1.022821 1.050483 1.076214 2.003567 2.068291 2.820207 3.037968 4.080206 5.488127 15.55104 40.7099 73.40119 71.5439 66.55383 62.25412 58.85568 55.76504 53.30424 52.05246 50.5676 49.20441 46.86648 43.66554 40.35411 34.57384 32.14188 28.32646 25.22305 22.33465 20.03341 17.53979 14.88748 12.9095 10.9062 6.546042 5.276596 5.004201 5.001115 5.000323 4.999985 4.99979 4.999154 4.986342 4.155287 4.997487 4.999704 4.999935 5.000056 5.000544 5.000188 5.000082 5.000221 5.000091 5.000024 5.00005 5.000191 5.000629 5.002678 5.08995 6.062706 7.398981 8.651178 12.19718 14.2227 17.4247 19.01449 22.10644 25.42017 28.10391 30.76632 34.34096 37.9189 40.23666 42.834 45.03295 46.85942 48.43895 50.00943 51.86367 53.86759 55.40123 57.18605 60.03674 61.64612 63.61052 64.28597 65.00537 65.9647 65.9967 66.00128 66.00887 66.016 66.21645 66.20393 66.0088 66.00225 66.00116 66.00056 66.00048 66.00089 66.0039 66.62411 66.99797 66.99939 66.99983 67.00012 67.00089 67.12062 67.00462 67.41877 67.99594 67.9987 67.9996 67.99988 67.99997 67.99998 67.99992 67.99976 67.99934 67.99737 67.59435 67.00368 67.00056 66.99931 66.94312 66.36593 66.00562 66.00308 66.0036 66.01272 66.5857 66.96521 66.99905 66.9995 66.99949 66.99938 66.99927 66.99914 66.99894 66.99759 66.84957 66.00374 66 65.99799 65.98785 65.01563 64.97527 64.0084 63.92323 63.0065 62.9818 62.2065 62.01298 62.0114 62.0029 61.93524 61.15186 61.00518 61.00955 62.01385 63.19218 64.27956 65.68842 65.99662 66.44727 66.99551 66.99689 66.99488 66.97939 66.54082
-5.753147 -5.790807 -5.828409 -5.865979 -5.90356 -5.941505 -6.005433 -6.084522 -6.163199 -6.241278 -6.318706 -6.395376 -6.47052 -6.485171 -6.425749 -6.365214 -6.304524 -6.243801 -6.183108 -6.122653 -6.079448 -6.082849 -6.087257 -6.09203 -6.097093 -6.102404 -6.107833 -6.103544 -6.055027 -6.000666 -5.945845 -5.890658 -5.835138 -5.779349 -5.726435 -5.700572 -5.682 -5.663609 -5.645335 -5.627197 -5.609318 -5.592938 -5.667742 -5.782616 -5.898717 -6.01566 -6.133369 -6.251796 -6.370721 -6.474364 -6.563473 -6.652346 -6.741154 -6.829903 -6.918548 -7.006732 -7.065347 -7.067869 -7.069618 -7.071355 -7.073156 -7.075038 -7.076983 -7.076621 -7.067381 -7.057544 -7.047692 -7.037835 -7.027961 -7.017999 -7.003132 -6.958136 -6.906623 -6.854655 -6.802304 -6.749584 -6.696484 -6.642559 -6.579749 -6.514169 -6.448883 -6.383928 -6.319326 -6.255134 -6.191849 -6.166095 -6.165871 -6.166218 -6.166841 -6.167676 -6.16865 -6.169258 -6.130785 -6.037726 -5.943681 -5.849368 -5.754879 -5.660271 -5.565745 -5.488784 -5.467557 -5.4478 -5.428738 -5.410299 -5.39247 -5.375287 -5.362099 -5.365832 -5.372578 -5.379977 -5.387977 -5.396523 -5.405416 -5.40487 -5.304742 -5.176582 -5.048992 -4.922274 -4.796481 -4.671605 -4.547341 -4.400941 -4.243174 -4.085101 -3.926833 -3.768369 -3.609651 -3.450142 -3.249148 -3.004626 -2.758132 -2.510203 -2.26092 -2.010365 -1.759006 -1.545916 -1.417667 -1.290318 -1.162688 -1.034676 -0.9062629 -0.77745 -0.6568863 -0.5707775 -0.4861197 -0.3966467 -0.6156808 -0.06570068 -0.03673735 -0.01401858 0.2227065 0.05262158 0.3485448 0.8683708 0.922206 1.115724 1.431411 1.93319 2.059584 2.116526 2.300646 3.131106 4.080139 5.45322 8.691686 19.56571 76.81783 80.8363 76.46078 74.16273 69.59136 64.32098 59.96661 55.89621 52.24258 49.52333 48.21395 46.65763 45.48923 43.63775 41.15181 37.8044 33.03442 31.39021 28.4812 25.87432 22.45441 19.67535 16.5673 14.4293 12.30323 10.11299 7.152078 5.356193 5.00533 5.000982 5.000269 4.999983 4.999804 4.999239 4.988503 4.719605 4.99904 4.999759 4.999932 5.000107 5.161774 5.00069 5.000124 5.000053 5.000023 5.000013 5.000047 5.000169 5.000563 5.003565 5.807571 6.196249 7.170287 9.011743 13.61557 15.54621 18.70391 21.04272 24.23544 27.6162 30.44769 32.30589 36.11235 39.114 42.005 44.23854 46.35612 47.74344 49.10802 51.02282 52.8616 54.24808 56.34993 58.4519 60.94917 62.04738 63.75845 65.09234 65.98215 66.00285 66.01562 66.76941 66.97455 66.98997 66.99345 66.99538 66.75807 66.49973 66.00758 66.00126 66.00069 66.00089 66.00371 66.76926 66.99839 66.99952 67.00004 67.00037 67.00063 67.01094 67.0046 67.82005 67.99739 67.99931 67.99977 67.99993 67.99998 67.99999 67.99995 67.99982 67.99951 67.99854 67.97665 67.00676 67.00072 66.9998 66.99779 66.98656 66.51668 66.49796 66.05902 66.47569 66.98132 66.9985 66.99966 66.99984 66.99986 66.99982 66.99971 66.99952 66.99912 66.99716 66.4068 66.0019 65.99972 65.99591 65.62623 65.00287 64.43995 64.00334 63.92939 63.32397 63.00283 62.99895 62.98767 62.99312 62.92889 62.20899 61.99441 61.96966 61.51682 62.3064 63.68689 64.97818 65.12703 65.96616 66.23218 66.99138 66.99792 66.99866 66.99831 66.9978
-5.708701 -5.747207 -5.78566 -5.824089 -5.862547 -5.901503 -5.975 -6.066844 -6.158311 -6.249188 -6.339411 -6.428859 -6.516643 -6.534933 -6.475531 -6.414972 -6.354247 -6.293482 -6.232744 -6.172242 -6.128789 -6.126505 -6.12514 -6.124131 -6.123412 -6.122949 -6.122634 -6.114253 -6.071035 -6.023761 -5.976056 -5.92799 -5.879591 -5.830911 -5.784703 -5.759593 -5.739797 -5.720154 -5.700619 -5.681212 -5.66205 -5.644593 -5.710635 -5.810194 -5.910894 -6.012424 -6.11472 -6.21775 -6.321396 -6.417471 -6.506748 -6.595903 -6.68501 -6.774063 -6.863008 -6.951448 -7.007429 -7.007642 -7.007093 -7.006532 -7.006035 -7.005621 -7.005274 -7.002926 -6.993198 -6.983103 -6.972998 -6.962891 -6.952771 -6.942579 -6.92804 -6.888856 -6.844726 -6.80016 -6.755214 -6.709892 -6.664165 -6.616796 -6.550333 -6.477878 -6.405674 -6.333791 -6.262258 -6.191137 -6.120966 -6.091028 -6.086003 -6.081536 -6.077344 -6.073369 -6.069536 -6.065358 -6.023513 -5.933672 -5.842951 -5.751973 -5.660818 -5.569536 -5.478305 -5.402223 -5.368942 -5.336916 -5.305561 -5.274821 -5.244688 -5.215199 -5.189783 -5.180653 -5.174165 -5.168326 -5.163084 -5.158381 -5.153999 -5.138094 -5.016826 -4.867821 -4.719379 -4.57181 -4.425176 -4.279489 -4.134657 -3.983335 -3.828715 -3.673894 -3.518902 -3.36373 -3.208332 -3.052313 -2.865931 -2.650105 -2.432512 -2.213508 -1.99315 -1.771509 -1.549005 -1.360791 -1.24136 -1.122526 -1.003315 -0.8836119 -0.7634464 -0.6427766 -0.5261529 -0.4230802 -0.2469139 -0.06986859 -0.04669496 0.009981876 0.01409231 0.4084806 0.4879763 0.8469198 0.8719076 0.9146553 0.9768874 1.048664 2.049049 2.625714 3.383662 7.80097 14.55041 27.26732 28.5547 28.05833 86.35303 93.83563 90.49645 83.9896 77.50747 72.16643 67.13295 63.73208 60.14293 55.4269 50.8672 47.04588 45.445 43.45739 41.84794 39.96855 37.68138 35.97855 31.96437 29.87402 27.27847 25.18552 21.93682 19.65423 16.99819 14.00634 12.00159 9.700583 7.54747 5.430574 5.019692 5.00125 5.000319 4.99999 4.999776 4.998958 4.886684 4.976157 4.99918 4.999781 4.999925 5.00002 5.000207 5.000559 5.11201 5.00015 5.000023 5.000011 5.000056 5.000206 5.000674 5.003045 5.093211 6.303286 7.773927 9.003983 15.11916 17.09025 19.75684 22.81548 26.78468 29.14535 33.44305 35.18001 38.23562 40.3732 43.03798 44.89991 46.54091 48.12495 49.70128 51.03412 53.00565 54.44124 56.36998 58.46274 60.78724 62.24052 64.18842 65.00784 65.99389 66.61872 66.5172 66.9964 66.99883 66.99968 66.99961 66.99913 66.99789 66.99364 66.25824 66.0043 66.00141 66.00117 66.00417 66.86155 66.99804 66.99949 67.00256 67.04366 67.00108 67.09086 67.00516 67.36286 67.99605 67.99889 67.99965 67.99992 67.99998 67.99999 67.99994 67.99979 67.99947 67.99854 67.9819 67.00861 67.00099 67.00009 66.99957 66.99901 66.99832 66.99695 66.99345 66.99721 66.99903 66.99973 66.99997 67.00003 67.00002 66.99994 66.99976 66.99938 66.99831 66.98567 66.01522 66.00121 65.99921 65.92348 65.04557 64.99923 64.36827 64.00412 64.00041 63.94948 63.31184 63.56311 63.26069 63.02516 63.01694 63.00105 62.67276 62.03203 62.40696 63.46428 64.0641 64.9927 65.00481 65.92956 66.00172 66.03412 66.99582 66.99916 66.99969 66.99994
-5.664308 -5.70366 -5.742964 -5.78225 -5.821586 -5.861561 -5.945173 -6.04978 -6.154037 -6.25771 -6.360725 -6.46295 -6.563358 -6.5847 -6.525306 -6.464722 -6.403962 -6.343157 -6.282373 -6.22182 -6.177856 -6.169883 -6.162745 -6.155954 -6.149455 -6.143217 -6.137161 -6.124962 -6.087379 -6.047194 -6.006605 -5.965662 -5.924383 -5.882809 -5.843131 -5.818558 -5.797536 -5.776642 -5.755847 -5.735173 -5.714728 -5.69688 -5.752832 -5.837047 -5.922342 -6.008456 -6.09534 -6.182973 -6.271351 -6.360575 -6.450033 -6.539471 -6.628876 -6.718231 -6.807476 -6.89617 -6.949398 -6.9473 -6.944454 -6.941594 -6.938799 -6.936089 -6.933451 -6.929159 -6.918995 -6.908642 -6.898284 -6.887927 -6.877562 -6.867141 -6.853094 -6.81992 -6.783175 -6.746013 -6.708472 -6.670549 -6.632195 -6.591082 -6.520597 -6.441265 -6.362143 -6.283333 -6.20487 -6.126822 -6.049768 -6.015743 -6.00592 -5.996639 -5.987633 -5.978848 -5.970212 -5.961254 -5.916407 -5.829792 -5.742395 -5.654752 -5.566931 -5.478975 -5.391028 -5.315118 -5.26976 -5.225461 -5.181808 -5.138763 -5.096322 -5.054523 -5.016855 -4.994833 -4.975105 -4.956022 -4.937531 -4.919574 -4.901909 -4.870479 -4.72787 -4.558012 -4.388711 -4.220287 -4.052806 -3.886306 -3.72095 -3.565767 -3.414315 -3.262754 -3.111043 -2.959172 -2.807108 -2.654608 -2.484002 -2.296913 -2.108243 -1.918188 -1.726781 -1.53407 -1.340421 -1.176183 -1.065539 -0.955121 -0.8439975 -0.731886 -0.6191516 -0.5072238 -0.4213293 -0.08977799 -0.03273718 -0.01902821 0.01103545 0.5158988 0.8246303 0.8848076 1.376894 1.588475 1.455001 1.209375 1.352057 2.133978 3.108144 28.30537 61.79776 85.60098 93.88441 95.46554 94.40337 96.04602 99.15444 96.25063 93.34039 87.44053 79.71776 72.62451 67.05257 63.24584 59.23548 55.23242 51.21394 46.58053 43.74032 41.36495 39.46007 37.04119 35.1315 33.40434 30.65388 28.58216 26.1224 24.6983 21.22642 18.82704 16.09467 14.16379 11.54511 9.246592 7.066323 5.018853 5.009169 5.001112 5.0003 5.000002 4.999805 4.998982 4.808302 5.177581 4.999783 4.999848 4.999935 4.999985 5.000035 5.000165 5.000688 5.000077 5.000015 5.000008 5.000053 5.00019 5.000592 5.002602 5.108851 6.279374 7.297118 9.027323 16.18651 17.65477 21.62518 23.62821 28.82998 31.9296 35.94844 37.40586 39.28679 41.79711 43.81993 45.59124 47.24636 48.53179 50.06126 51.93992 53.87501 55.1037 56.95073 58.73254 60.56812 62.8125 64.36958 65.09927 66.63922 66.97788 66.99685 67.002 67.04477 67.05219 67.00845 67.0013 66.99981 66.99866 66.98931 66.17331 66.01327 66.00134 66.00304 66.53454 66.99808 66.99951 67.00007 67.00043 67.00082 67.25301 67.0527 67.9842 67.89413 67.56053 67.99838 67.99992 67.99998 67.99999 67.99993 67.99978 67.99946 67.99851 67.97955 67.00562 67.00086 67.0002 66.99995 66.99985 66.99983 66.99989 67.00005 67.00065 67.00098 67.0006 67.0005 67.00036 67.00023 67.00005 66.99977 66.99912 66.99433 66.4779 66.00241 66.00053 65.99921 65.98766 65.04935 65.00085 64.98163 64.04249 64.18703 64.03886 64.00608 63.99921 63.99733 63.99504 63.99177 63.64338 63.0071 63.00093 63.03957 64.00175 64.84778 64.99928 65.00685 65.36111 66.00042 66.02619 66.99624 66.99971 67.00079 67.00237
-5.619986 -5.660182 -5.700336 -5.740479 -5.780689 -5.821692 -5.915963 -6.033338 -6.150381 -6.266844 -6.382648 -6.497642 -6.610663 -6.634465 -6.575068 -6.514456 -6.453661 -6.392816 -6.331987 -6.27138 -6.226643 -6.212976 -6.200066 -6.187494 -6.175214 -6.163203 -6.151409 -6.135667 -6.104052 -6.070957 -6.037485 -6.003663 -5.969505 -5.935035 -5.901709 -5.877456 -5.855208 -5.833063 -5.811009 -5.789067 -5.767339 -5.74881 -5.794302 -5.863165 -5.933055 -6.003755 -6.075225 -6.147463 -6.220587 -6.303674 -6.393328 -6.483049 -6.572753 -6.662411 -6.751956 -6.840901 -6.891256 -6.886846 -6.881702 -6.876545 -6.871453 -6.866446 -6.861517 -6.855318 -6.844779 -6.834169 -6.823558 -6.81295 -6.80234 -6.791691 -6.778297 -6.75133 -6.721972 -6.692214 -6.66208 -6.631557 -6.600571 -6.565411 -6.490539 -6.404326 -6.318287 -6.23255 -6.147157 -6.062183 -5.978249 -5.940233 -5.925614 -5.91152 -5.897701 -5.884106 -5.870666 -5.856936 -5.809455 -5.726073 -5.642 -5.557691 -5.473203 -5.388569 -5.303893 -5.227448 -5.169997 -5.113421 -5.05747 -5.002118 -4.947366 -4.893254 -4.843313 -4.808373 -4.775404 -4.743075 -4.711335 -4.680121 -4.649169 -4.602053 -4.437906 -4.247193 -4.057034 -3.867751 -3.679424 -3.492116 -3.306598 -3.148309 -3.000039 -2.85174 -2.70332 -2.554752 -2.406024 -2.257065 -2.103397 -1.945075 -1.785342 -1.624246 -1.4618 -1.298038 -1.133258 -0.9920934 -0.8902255 -0.7880697 -0.6837872 -0.5719924 -0.4840596 -0.3529696 -0.09146217 -0.03425395 -0.01090115 0.01803692 0.3226956 0.8073426 0.8714899 1.180132 1.811941 2.318927 3.110952 3.227007 3.374398 6.734299 46.09335 80.09711 85.57558 91.60726 96.43499 99.57138 101.857 101.8872 99.32124 97.12086 94.70965 89.91383 82.52537 75.64599 69.99699 64.01862 59.52752 54.89408 50.39009 47.34989 44.14739 41.00816 38.2422 35.2911 33.1551 30.90748 28.82126 26.46484 24.82522 23.45023 20.76321 18.00325 16.0113 13.51165 11.29053 9.091308 6.435229 5.015406 5.232841 5.001691 5.000357 5.00003 4.99984 4.999241 4.944092 5.025695 5.000674 4.999862 4.999925 4.999974 5.000009 5.000026 5.000035 5.00002 5.000008 5.000007 5.000065 5.000216 5.000666 5.002857 5.109027 6.263942 7.295032 9.054219 16.65354 19.68175 21.60398 24.47571 29.30185 33.2699 36.91987 39.13702 40.77074 42.65011 44.72256 46.06783 47.78181 49.33803 51.1566 52.61145 54.10359 55.26845 56.97078 58.64218 60.56943 62.32732 63.99025 65.20724 66.00359 66.97012 67.00281 67.65403 67.98676 67.98963 67.94401 67.02618 67.0008 66.99951 66.99718 66.88891 66.07671 66.00171 66.00745 66.98164 66.99824 66.9995 66.99999 67.00037 67.00104 67.01674 67.46069 67.95889 67.99824 67.99854 67.9996 67.99995 67.99999 67.99998 67.9999 67.99969 67.99919 67.99759 67.75872 67.00366 67.00076 67.00024 67.00009 67.00011 67.00038 67.00256 67.00368 67.05373 67.08197 67.00504 67.01184 67.00275 67.00102 67.00025 66.99977 66.9986 66.7748 66.00613 66.00139 66.00041 65.99946 65.99336 65.05739 65.00705 65.00272 64.99677 64.99554 64.96127 64.97565 64.01906 64.01093 64.01283 64.00178 63.99423 63.54332 63.56147 63.99117 64.56922 64.99754 65.01134 65.30365 65.92385 66.00349 66.78056 66.99807 67.00069 67.00537 67.46986
-5.575781 -5.616819 -5.657819 -5.698814 -5.739897 -5.782079 -5.887401 -6.017536 -6.147352 -6.276593 -6.405172 -6.532925 -6.658539 -6.684209 -6.624794 -6.564156 -6.503325 -6.442442 -6.381569 -6.320905 -6.275134 -6.255771 -6.237089 -6.218738 -6.200679 -6.182897 -6.165368 -6.146357 -6.121042 -6.095039 -6.068682 -6.04198 -6.014941 -5.987573 -5.960419 -5.936272 -5.912796 -5.889402 -5.86609 -5.842882 -5.81987 -5.80036 -5.83503 -5.88854 -5.943026 -5.998312 -6.054371 -6.111217 -6.1691 -6.246768 -6.336632 -6.426637 -6.51664 -6.6066 -6.696445 -6.78564 -6.833006 -6.826282 -6.818841 -6.811388 -6.804 -6.796698 -6.789479 -6.781389 -6.770557 -6.759689 -6.748825 -6.737966 -6.72711 -6.716236 -6.703656 -6.683091 -6.661121 -6.638767 -6.616038 -6.592912 -6.569292 -6.539783 -6.460155 -6.36706 -6.274103 -6.181439 -6.089118 -5.997219 -5.906406 -5.864495 -5.845083 -5.826174 -5.807543 -5.789136 -5.770893 -5.752396 -5.702649 -5.622504 -5.541754 -5.460777 -5.379621 -5.298306 -5.216885 -5.139195 -5.069637 -5.000784 -4.932532 -4.864873 -4.797812 -4.731386 -4.669152 -4.621272 -4.575061 -4.529486 -4.484497 -4.440027 -4.395789 -4.332826 -4.146951 -3.935382 -3.724365 -3.514229 -3.305058 -3.096948 -2.891786 -2.730999 -2.585918 -2.440886 -2.295753 -2.150491 -2.005101 -1.859705 -1.724134 -1.594609 -1.463834 -1.331719 -1.198253 -1.063472 -0.9276558 -0.8089249 -0.7165074 -0.6247261 -0.5269153 -0.2172634 -0.09249572 -0.06313273 -0.03103913 -0.003155436 0.02604967 0.5508947 0.8331154 0.8758835 1.554623 1.999393 3.212084 4.529222 11.05175 62.00357 69.14079 74.40004 81.10327 85.01294 90.93106 94.91734 97.94466 101.8553 101.9625 101.1547 98.95487 96.91954 94.82695 90.58794 84.18575 78.24749 72.895 68.19267 62.49768 58.59787 53.83771 49.32551 45.79638 42.19024 38.69697 34.9918 32.73285 29.10166 27.4869 24.97895 23.4976 21.60894 19.68672 17.56538 15.52527 13.3702 11.26663 9.038111 6.433429 5.014394 5.198673 5.001341 5.000397 5.000073 4.999912 4.999626 4.997591 4.953198 5.002253 4.999751 4.9999 4.999962 4.999993 5.000006 5.000006 5.000005 5.000003 5.000014 5.000082 5.000246 5.00075 5.00315 5.108533 6.079134 7.157245 9.155685 16.96374 19.80645 21.94302 25.13083 29.95903 33.23466 36.57009 39.51965 41.25484 43.59591 44.98906 46.25523 48.37531 50.05082 51.77464 52.74207 54.16716 55.86713 57.31132 58.9943 60.6107 62.5811 63.73582 64.83946 66.02815 66.98438 67.02109 67.99335 67.9976 67.99789 67.9946 67.44619 67.0073 67.00002 66.99709 66.78535 66.00445 66.00151 66.00777 66.70138 66.99798 66.99953 67.00012 67.00063 67.00138 67.00486 67.72198 67.99547 67.99928 67.99972 67.9999 67.99998 67.99999 67.99996 67.99985 67.99955 67.99853 67.95386 67.18913 67.00195 67.00054 67.00023 67.00018 67.00037 67.00159 67.07415 67.62927 67.87408 67.74774 67.32648 67.34393 67.72147 67.00743 67.00069 66.99989 66.99857 66.6394 66.0051 66.00142 66.0006 65.99993 65.99854 65.99041 65.98549 65.789 65.74734 65.04202 65.00464 64.99889 64.99562 64.991 64.98969 64.29179 64.00415 64.0004 64.00072 64.0094 64.9861 65.45428 65.90183 65.99622 66.00182 66.28637 66.99464 67.00002 67.0045 67.16907 67.99198
-5.531919 -5.573783 -5.615613 -5.657444 -5.699382 -5.743535 -5.859623 -6.002454 -6.144989 -6.286958 -6.428268 -6.568741 -6.706912 -6.733851 -6.674408 -6.613745 -6.552885 -6.491968 -6.431057 -6.370337 -6.323277 -6.298218 -6.273771 -6.249647 -6.225815 -6.202267 -6.179008 -6.157004 -6.138318 -6.119405 -6.100157 -6.08057 -6.060644 -6.040373 -6.019214 -5.994958 -5.970257 -5.945617 -5.921052 -5.896583 -5.872289 -5.851503 -5.874991 -5.91315 -5.952238 -5.992116 -6.03277 -6.074229 -6.116887 -6.189855 -6.279942 -6.370234 -6.460535 -6.550798 -6.640943 -6.730386 -6.774646 -6.765608 -6.755875 -6.746129 -6.736449 -6.726855 -6.717351 -6.707453 -6.69634 -6.685215 -6.674096 -6.662986 -6.651884 -6.640782 -6.629177 -6.615208 -6.600625 -6.585672 -6.570345 -6.554615 -6.538356 -6.514193 -6.429441 -6.329462 -6.229588 -6.129999 -6.03075 -5.931926 -5.834242 -5.78853 -5.764322 -5.740599 -5.717153 -5.693934 -5.670885 -5.647624 -5.595977 -5.519073 -5.441642 -5.363993 -5.286163 -5.208163 -5.129982 -5.050339 -4.968659 -4.887526 -4.806975 -4.72701 -4.647639 -4.568903 -4.494359 -4.433516 -4.374067 -4.315249 -4.257014 -4.199292 -4.141769 -4.062806 -3.855013 -3.622593 -3.390725 -3.15974 -2.929733 -2.70083 -2.476536 -2.313867 -2.171981 -2.030215 -1.888371 -1.746416 -1.604369 -1.462574 -1.346266 -1.245567 -1.143768 -1.040692 -0.9362995 -0.8307436 -0.7245307 -0.6297626 -0.5609398 -0.7503648 -0.4202515 -0.06958576 -0.05386627 -0.02935327 -0.004038827 0.02334751 0.2420103 0.8717575 0.9226013 1.353007 2.128027 3.867045 19.22206 64.63608 73.6896 76.21163 77.98944 80.84207 84.93919 88.91759 94.58652 96.50955 99.86691 101.9331 101.9702 100.5775 98.41227 97.10651 94.51466 89.57359 84.08882 78.19478 74.99352 70.02267 65.83353 60.89875 56.15615 51.85907 47.83803 43.56315 39.1374 35.19002 32.74862 29.03933 26.83462 24.26112 22.90953 20.37834 18.16968 16.85303 14.88396 12.97444 10.93947 9.144205 6.682011 5.022907 5.2199 5.001613 5.000488 5.000123 4.999967 4.999762 4.99867 4.673342 4.987682 4.999481 4.999853 4.999948 4.999983 5.000001 5.000002 5.000001 5.000004 5.000029 5.000109 5.0003 5.00098 5.007205 5.666496 6.010901 7.033941 9.804448 18.39041 19.75409 22.0655 25.84895 29.04238 32.48974 35.97051 39.77743 41.05429 43.31323 45.00058 46.58628 48.91058 50.47693 51.63804 53.07465 54.77927 56.00257 57.59583 59.44162 60.99368 62.59317 63.01035 63.65255 66.26472 67.00545 67.67018 67.99686 67.99897 67.99917 67.99827 67.99351 67.02145 67.00023 66.99143 66.15032 66.00244 66.00122 66.00294 66.26598 66.99738 66.9996 67.00046 67.00174 67.00468 67.20647 67.96581 67.99865 67.99959 67.99985 67.99995 67.99999 67.99999 67.99994 67.99979 67.99937 67.99759 67.57944 67.00323 67.00091 67.00037 67.00021 67.00024 67.00059 67.00342 67.81641 67.99393 67.99549 67.99274 67.98235 67.95958 67.93208 67.15123 67.00126 67.00008 66.99914 66.99268 66.01927 66.00414 66.00148 66.00043 65.99983 65.99931 65.9989 65.99826 65.9968 65.98903 65.40684 65.00744 65.00196 64.99991 64.99861 64.97999 64.74522 64.00792 64.00814 64.65173 65.02554 65.991 65.9991 66.00237 66.14294 66.95459 66.99905 67.00288 67.35706 67.99063 67.99887
-5.50812 -5.549085 -5.590076 -5.63113 -5.672366 -5.717222 -5.841027 -5.993165 -6.145621 -6.298117 -6.450558 -6.602757 -6.753114 -6.78135 -6.722852 -6.662486 -6.601657 -6.540767 -6.479875 -6.41915 -6.370595 -6.339894 -6.309737 -6.279892 -6.250336 -6.221067 -6.192118 -6.167408 -6.155653 -6.143799 -6.131633 -6.11914 -6.106315 -6.093137 -6.077812 -6.053268 -6.027369 -6.001506 -5.975711 -5.950001 -5.924445 -5.902106 -5.914072 -5.936904 -5.960618 -5.985113 -6.010382 -6.036475 -6.063935 -6.132925 -6.22325 -6.313827 -6.404425 -6.494989 -6.585433 -6.675125 -6.716167 -6.704825 -6.692811 -6.680786 -6.668826 -6.656952 -6.645171 -6.633564 -6.622171 -6.610785 -6.599409 -6.588042 -6.576688 -6.565356 -6.55488 -6.547696 -6.540493 -6.532933 -6.525 -6.516658 -6.507751 -6.488629 -6.398387 -6.291521 -6.184732 -6.078221 -5.972047 -5.866305 -5.762304 -5.712346 -5.683329 -5.654787 -5.626523 -5.598487 -5.570629 -5.542604 -5.489417 -5.41575 -5.341628 -5.267295 -5.192782 -5.118087 -5.043128 -4.960821 -4.867005 -4.773594 -4.680747 -4.588481 -4.496807 -4.405765 -4.318898 -4.245075 -4.172396 -4.100343 -4.028871 -3.957905 -3.887106 -3.791995 -3.562103 -3.308845 -3.05614 -2.804321 -2.553491 -2.303809 -2.060891 -1.896958 -1.758274 -1.619779 -1.481233 -1.342593 -1.203907 -1.065753 -0.9698937 -0.898111 -0.825397 -0.7515657 -0.6768676 -0.6024843 -0.5330954 -0.5923376 -0.861586 -0.8528265 -0.3293035 -0.03542098 -0.01634568 0.02525092 0.1239135 0.843401 0.9115319 1.040285 1.488911 2.825883 5.090584 57.9178 74.69177 77.52036 80.25746 82.58408 83.80132 86.29681 89.34974 93.61035 96.64046 98.99379 101.0044 101.2245 100.9977 99.90449 98.28584 95.55244 93.21674 87.5052 82.50025 77.55179 75.33303 70.30083 65.32851 60.03361 55.91253 51.18304 47.85822 43.30967 39.2297 35.9694 33.01369 29.60866 26.49309 23.8825 22.29126 19.34126 17.4521 16.04481 14.20965 11.98972 10.08473 8.994784 6.841657 5.991884 5.475696 5.003815 5.000814 5.000219 5.00001 4.999822 4.99917 4.850296 5.280244 4.999258 4.999769 4.99992 4.999972 4.999996 5 5.000001 5.000009 5.000058 5.000175 5.000455 5.001554 5.04567 5.996891 6.014244 7.105799 10.09094 17.93862 19.81142 22.62667 25.7661 28.94808 32.20303 35.16769 38.63419 40.46968 42.47818 44.91066 46.89885 48.70922 50.55471 52.01463 53.09922 55.01603 56.35137 57.94774 59.44766 61.00984 62.6368 63.00482 63.25229 66.06339 67.40857 67.99467 67.99947 68.00127 68.00314 67.99946 67.99507 67.02702 67.00024 66.9839 66.01561 66.00185 66.00111 66.00304 66.26113 66.99719 66.99982 67.00198 67.01564 67.96728 67.84737 67.99828 67.9994 67.99976 67.99992 67.99998 68 67.99998 67.9999 67.99969 67.99908 67.99612 67.12482 67.00214 67.00062 67.00027 67.00019 67.00031 67.00082 67.00429 67.91817 67.99759 67.99876 67.99885 67.99871 67.99844 67.99464 67.12179 67.00181 67.00031 66.99963 66.99821 66.98776 66.80914 66.00955 66.00138 66.00056 66.00015 65.99991 65.99968 65.99928 65.99833 65.99461 65.98154 65.41486 65.00459 65.00592 65.00075 64.99564 64.58317 64.82078 65.00204 65.85605 66.00097 66.39911 66.08363 66.981 66.99819 67.00082 67.02348 67.98694 67.99879 68.00397
-5.563484 -5.601877 -5.640352 -5.678945 -5.717781 -5.761173 -5.878778 -6.022089 -6.166274 -6.311071 -6.456389 -6.602039 -6.746397 -6.769583 -6.714152 -6.657497 -6.600507 -6.543316 -6.485979 -6.428646 -6.38184 -6.349154 -6.316771 -6.28451 -6.252354 -6.220305 -6.188421 -6.162657 -6.154768 -6.147233 -6.139816 -6.132498 -6.12527 -6.118106 -6.108431 -6.086505 -6.062058 -6.03725 -6.012381 -5.987468 -5.962564 -5.940221 -5.942454 -5.952041 -5.962265 -5.973059 -5.984427 -5.996433 -6.009766 -6.075655 -6.166074 -6.256829 -6.347672 -6.438541 -6.529349 -6.619422 -6.657392 -6.643902 -6.629717 -6.615517 -6.601373 -6.587306 -6.573321 -6.560122 -6.548423 -6.536738 -6.525064 -6.513403 -6.501761 -6.490162 -6.480932 -6.48067 -6.48079 -6.480571 -6.479988 -6.478996 -6.477414 -6.463019 -6.366926 -6.253184 -6.139495 -6.026076 -5.912993 -5.800345 -5.690289 -5.635932 -5.602087 -5.568713 -5.535618 -5.502753 -5.47007 -5.437269 -5.38288 -5.312419 -5.241568 -5.170516 -5.099288 -5.027875 -4.95611 -4.87043 -4.764472 -4.658795 -4.553667 -4.449117 -4.345156 -4.241828 -4.142639 -4.055837 -3.96995 -3.884687 -3.800002 -3.715818 -3.63177 -3.520383 -3.268238 -2.994183 -2.720684 -2.448068 -2.176445 -1.906011 -1.644991 -1.480418 -1.344951 -1.209736 -1.074497 -0.9391916 -0.8039154 -0.6695348 -0.5954515 -0.5529075 -0.509954 -0.4668728 -0.4272792 -0.4866786 -0.7138327 -0.8334487 -0.843356 -0.2229005 -0.01181743 0.004753806 0.02791397 0.4788443 0.8813953 0.988857 1.504192 2.099482 3.133377 6.216271 67.20096 76.09525 79.14128 82.9619 85.8752 87.28591 88.50561 92.0497 94.64731 96.70845 98.33388 100.1215 100.9905 100.9991 100.7851 98.96888 96.95422 94.37717 90.12032 85.8722 80.0508 76.56436 73.64008 69.03244 64.71278 58.8328 54.67344 50.32316 46.71375 42.34396 39.19025 35.31854 32.75584 29.62588 26.49107 23.7135 21.99209 19.14595 16.85998 15.9917 13.04589 11.43865 9.945506 8.984417 6.244017 5.997164 5.980206 5.020183 5.001288 5.000302 5.000044 4.999886 4.99955 4.994885 4.059859 4.999751 4.999694 4.999905 4.999968 4.999993 5 5.000003 5.000019 5.000088 5.000249 5.000628 5.001868 5.043017 5.999716 6.026806 7.581881 11.47184 17.95185 19.80417 22.0745 24.9118 27.78328 30.81565 34.17336 37.02657 38.73627 41.99834 44.62529 46.72558 48.9682 50.51032 52.57772 53.68843 55.43055 56.30465 58.00687 59.71954 61.01175 62.35262 63.88098 63.9042 65.69775 67.2076 67.99654 68.5395 68.2086 68.44495 68.00332 67.99665 67.29554 67.00006 66.93697 66.01768 66.00138 66.00089 66.0027 66.76478 66.99738 67.00031 67.10181 67.92828 67.99619 67.99874 67.99943 67.99973 67.99989 67.99996 67.99999 68 67.99997 67.99987 67.9996 67.99875 67.99429 67.32363 67.00144 67.00039 67.00017 67.00015 67.00034 67.00096 67.00514 67.9724 67.9984 67.99934 67.99952 67.99948 67.99918 67.99648 67.19129 67.00199 67.00044 66.99992 66.99952 66.99879 66.97963 66.15098 66.00354 66.00193 66.00095 66.00053 66.00032 66.00016 65.99989 65.99936 65.99847 65.99336 65.72137 65.95205 65.03116 65.00497 65.00063 65.00205 65.23692 65.99512 66.01214 66.98386 66.98403 66.99793 67.00009 67.00206 67.62852 67.99698 68.00117 68.29618
-5.628284 -5.665116 -5.70203 -5.739061 -5.77633 -5.818699 -5.927958 -6.059171 -6.191229 -6.323901 -6.457098 -6.59064 -6.72295 -6.738917 -6.686344 -6.632703 -6.578747 -6.52459 -6.470281 -6.415951 -6.37057 -6.336167 -6.302014 -6.267974 -6.234035 -6.200201 -6.166545 -6.139492 -6.129577 -6.120026 -6.110606 -6.101295 -6.092083 -6.08295 -6.072101 -6.053269 -6.033309 -6.013152 -5.992817 -5.972317 -5.951686 -5.932886 -5.930642 -5.933045 -5.935858 -5.939043 -5.942609 -5.946633 -5.951909 -6.01592 -6.10471 -6.193891 -6.283221 -6.372637 -6.462049 -6.550791 -6.588711 -6.580582 -6.571421 -6.561785 -6.55174 -6.5413 -6.530452 -6.518016 -6.503314 -6.4887 -6.474217 -6.459873 -6.445676 -6.431664 -6.42125 -6.423685 -6.426999 -6.430409 -6.433881 -6.437366 -6.440658 -6.429142 -6.32806 -6.208992 -6.089844 -5.97084 -5.852049 -5.733573 -5.618375 -5.559126 -5.519547 -5.480567 -5.441998 -5.403798 -5.365917 -5.328074 -5.271687 -5.203089 -5.134755 -5.066844 -4.999378 -4.932341 -4.865493 -4.776999 -4.659027 -4.541243 -4.423996 -4.307319 -4.191226 -4.075765 -3.96448 -3.864792 -3.76589 -3.667598 -3.56987 -3.472625 -3.375483 -3.247848 -2.973506 -2.6789 -2.384817 -2.091575 -1.79929 -1.508189 -1.229617 -1.065039 -0.9327731 -0.8008305 -0.668921 -0.5370122 -0.4053324 -0.2751624 -0.2248365 -0.2136721 -0.2086105 -0.2369061 -0.4734617 -0.7583641 -0.7473426 -0.5934195 -0.01696817 0.008013347 0.2964921 0.7012038 0.7160237 0.9641275 1.842316 2.052535 2.660093 4.830661 30.91962 69.72403 76.09831 78.97587 82.46944 86.25105 89.06614 91.07909 93.5861 95.2376 96.3417 97.5731 99.06034 100.7325 100.9902 100.9838 100.0191 98.07645 95.43351 92.87329 87.64738 83.05327 77.57426 74.13046 70.79382 67.70121 61.09161 56.82502 53.60425 48.44592 44.67641 41.10508 38.88344 34.10665 32.06055 28.78882 26.36651 23.53179 21.88799 18.70671 16.74861 15.96869 12.90943 11.10653 9.954755 8.946442 6.17831 5.225904 5.323701 5.851109 5.003812 5.000468 5.000074 4.999905 4.999634 4.9976 4.3541 4.994177 4.999504 4.999866 4.999958 4.999988 5 5.000007 5.000038 5.000155 5.000497 5.002636 5.011475 5.48074 6.00303 6.131968 8.176258 12.27394 16.99404 19.34392 21.67475 23.9694 26.75073 29.49703 32.74834 36.25179 37.98742 41.65197 43.80814 46.23489 48.43544 50.49682 52.57328 53.96306 55.44512 56.8802 58.34423 59.86075 61.30237 62.66264 63.99423 64.32481 66.16438 67.41608 67.99726 68.02415 68.72466 68.1483 68.00048 67.99583 67.30128 66.9988 66.65804 66.00417 66.0012 66.00088 66.00185 66.02263 66.99305 67.00015 67.05377 67.77052 67.99699 67.99913 67.9996 67.9998 67.99993 67.99998 68 67.99999 67.99995 67.99979 67.99931 67.99734 67.6772 67.00597 67.00093 67.00027 66.99994 67.0001 67.00043 67.00168 67.2187 67.99192 67.9987 67.99945 67.99964 67.99957 67.99915 67.99699 67.37212 67.00297 67.00068 67.00011 66.9998 66.99944 66.99805 66.96497 66.10838 66.20448 66.00801 66.00603 66.00249 66.00177 66.00175 66.0012 66.00038 65.99946 65.99849 65.99722 65.96992 65.70009 65.01457 65.09541 65.98882 66.00029 66.40105 66.99441 67.00159 67.01561 67.00161 67.0061 67.69926 67.99827 68.00444 68.39508
-5.693237 -5.728512 -5.763867 -5.799337 -5.835035 -5.87614 -5.976743 -6.095804 -6.215674 -6.336153 -6.45716 -6.578524 -6.698733 -6.708142 -6.658427 -6.607785 -6.556845 -6.505706 -6.454413 -6.403072 -6.358893 -6.322769 -6.28685 -6.251037 -6.215323 -6.179716 -6.144295 -6.115917 -6.1039 -6.092239 -6.080711 -6.069294 -6.057981 -6.046759 -6.03477 -6.019155 -6.002993 -5.986644 -5.970116 -5.953415 -5.93656 -5.920715 -5.913684 -5.909114 -5.904921 -5.901091 -5.897642 -5.894663 -5.893481 -5.955529 -6.042226 -6.129316 -6.21656 -6.303895 -6.391235 -6.477944 -6.517046 -6.516726 -6.515465 -6.51373 -6.511577 -6.509014 -6.50598 -6.497281 -6.479649 -6.462017 -6.444507 -6.427136 -6.409918 -6.392894 -6.379888 -6.380579 -6.381985 -6.383496 -6.385077 -6.386675 -6.38807 -6.373356 -6.268995 -6.148221 -6.027255 -5.906316 -5.78547 -5.664821 -5.54778 -5.481308 -5.431828 -5.383054 -5.334818 -5.287076 -5.239779 -5.192577 -5.121055 -5.0354 -4.950585 -4.866783 -4.784016 -4.702271 -4.621335 -4.523647 -4.404221 -4.284685 -4.165316 -4.046141 -3.927175 -3.808484 -3.695071 -3.595432 -3.495828 -3.396049 -3.296046 -3.195741 -3.094753 -2.961463 -2.684202 -2.387513 -2.089068 -1.789161 -1.487903 -1.185546 -0.8966182 -0.7307212 -0.5971323 -0.4639843 -0.3310591 -0.1985372 -0.06706578 0.06077418 0.08655385 0.03732445 -0.5585128 -0.824872 -0.7875946 -0.7333454 -0.3547213 -0.2439371 0.03874062 0.05344554 0.8838829 0.9718172 1.04809 1.645689 2.111192 3.173767 6.497972 61.95274 73.60103 76.11927 78.36755 81.41416 85.4604 88.40668 90.4052 92.55949 94.85771 95.9569 97.25633 98.7719 99.97348 100.7426 100.9897 100.6584 98.61169 97.19286 94.7579 90.61084 84.86509 78.2425 74.39119 70.70698 66.90087 64.69554 58.94162 55.31048 50.13636 46.58815 42.38181 39.8051 37.62484 32.89117 31.35748 27.66769 25.9808 23.70277 21.06328 18.90779 16.95564 15.96596 12.55272 11.20459 10.0009 9.362101 6.023563 5.077316 5.011279 5.710715 5.00343 5.000391 5.000063 4.999929 4.99974 4.998469 4.435031 4.995295 4.999493 4.999869 4.999959 4.999989 5 5.000009 5.000051 5.000192 5.000647 5.006343 5.468846 5.980482 6.017236 6.87904 8.514121 11.85643 16.00801 18.54997 20.69939 22.62697 25.64268 28.28751 32.13457 35.35954 37.69077 41.4183 43.7323 46.06923 48.40612 50.7421 52.57024 53.92516 55.4842 57.01531 58.93093 59.9917 61.03823 62.7075 64.73194 65.23793 66.63425 67.96277 67.99919 68.02735 68.73652 68.08894 68.00043 67.9955 67.02022 66.99664 66.01776 66.00253 66.00098 66.00077 66.00163 66.01726 66.99302 66.99972 67.00188 67.15154 67.99392 67.99906 67.99965 67.99985 67.99995 67.99999 68 67.99999 67.99994 67.99976 67.99905 67.99187 67.32395 67.00198 67.00047 66.99997 66.70396 66.99974 67.00039 67.00159 67.46371 67.99646 67.99894 67.99951 67.99966 67.99954 67.99765 67.99565 67.40862 67.00633 67.00085 67.0004 67.00002 66.99981 66.99947 66.99831 66.99477 66.71876 66.5563 66.3209 66.25529 66.04156 66.10464 66.01401 66.0115 66.00177 66.00016 65.99957 65.9987 65.9957 65.98085 65.69547 65.99868 66.00148 66.34724 66.9966 67.00851 67.64127 67.00744 67.30119 67.99316 68.00005 68.01434 68.60898
-5.75818 -5.791899 -5.825695 -5.859601 -5.893723 -5.933331 -6.024992 -6.131886 -6.239552 -6.347823 -6.456625 -6.565795 -6.673904 -6.677445 -6.630596 -6.582952 -6.535026 -6.486906 -6.438628 -6.390274 -6.347078 -6.309231 -6.271546 -6.233963 -6.196476 -6.159098 -6.121912 -6.092189 -6.078062 -6.06428 -6.050631 -6.037095 -6.023667 -6.010346 -5.997334 -5.985085 -5.972723 -5.960182 -5.947461 -5.934561 -5.921483 -5.908371 -5.896284 -5.88475 -5.873565 -5.862736 -5.852289 -5.842327 -5.83523 -5.895033 -5.979624 -6.064617 -6.149769 -6.235016 -6.320278 -6.404963 -6.445717 -6.453242 -6.459917 -6.466128 -6.471921 -6.477295 -6.482131 -6.476712 -6.456156 -6.435508 -6.414972 -6.394573 -6.374326 -6.35428 -6.338676 -6.337589 -6.33701 -6.336538 -6.336136 -6.33575 -6.335147 -6.317163 -6.209349 -6.086698 -5.963861 -5.841048 -5.718325 -5.59579 -5.477079 -5.402893 -5.342885 -5.283553 -5.224753 -5.166443 -5.108564 -5.05066 -4.959916 -4.851759 -4.744418 -4.63809 -4.532805 -4.428559 -4.325227 -4.212819 -4.089312 -3.965834 -3.842531 -3.719422 -3.596522 -3.473927 -3.359363 -3.263834 -3.1684 -3.072786 -2.976938 -2.880784 -2.783969 -2.657307 -2.405254 -2.138216 -1.869426 -1.599125 -1.327424 -1.054553 -0.7932981 -0.6313692 -0.4944122 -0.3579929 -0.2221128 -0.0877119 0.04118486 0.1456245 -0.214319 -0.7047319 -0.5377318 -0.7395167 -0.2206946 0.04635853 0.05195763 0.2441249 0.8075838 0.967358 1.17127 1.9337 2.379058 3.236857 4.709562 20.54832 69.69456 73.57605 75.72446 78.03846 80.327 83.87188 86.48993 88.63335 90.78842 92.82377 94.88071 96.30268 97.55267 98.9959 99.98438 100.1043 100.9337 100.1648 97.69785 96.39383 93.12745 88.01733 82.79865 74.42721 70.50412 67.30419 64.72091 59.74484 55.94727 52.91845 48.08828 44.99054 41.08086 38.43885 35.90963 31.74081 30.16378 26.41053 25.36067 23.71601 20.27893 18.81396 16.56497 15.59496 12.38982 10.98839 9.995844 8.022286 6.010656 5.249856 5.00618 5.134236 5.001232 5.000301 5.000049 4.999926 4.999732 4.998492 4.578466 4.989919 4.999417 4.999853 4.999953 4.999987 5 5.000012 5.000075 5.000266 5.000901 5.010415 5.570885 5.996541 6.851441 7.747725 9.064307 11.80511 14.83774 17.57705 19.80674 22.38736 25.9157 28.21911 31.93781 35.40024 37.67882 40.73644 43.24149 45.27685 48.52523 50.62846 52.68578 54.07853 55.79471 57.43658 59.24169 60.53595 61.92997 63.45409 64.99013 65.84161 66.99177 67.96989 68.00273 68.66113 68.84209 68.10958 68.00296 67.99389 67.02415 66.99804 66.24671 66.00366 66.00132 66.00106 66.00404 66.65883 66.99706 66.99967 67.00114 67.00714 67.79866 67.99709 67.99939 67.99981 67.99994 67.99999 68 67.99998 67.99991 67.99965 67.99858 67.87354 67.02962 67.00137 67.00039 67.00007 66.99945 67 67.00039 67.00137 67.14322 67.87243 67.99823 67.99922 67.99944 67.99918 67.99293 67.73621 67.35793 67.00376 67.00323 67.19014 67.00034 66.99994 66.99978 66.99949 66.99903 66.99843 66.99792 66.99458 66.99271 66.99389 66.99326 66.98502 66.76177 66.025 66.00194 66.00031 65.99974 65.99928 65.99889 65.99887 66.00037 66.00369 66.57337 66.99785 67.00775 67.94049 67.91802 67.99262 67.99915 68.00121 68.01846 68.98613
-5.823076 -5.855238 -5.887475 -5.919816 -5.952357 -5.990237 -6.072678 -6.167396 -6.262855 -6.358911 -6.455501 -6.552475 -6.648489 -6.646857 -6.602887 -6.558241 -6.51333 -6.468229 -6.422966 -6.377594 -6.335164 -6.295588 -6.25614 -6.216786 -6.177528 -6.138377 -6.099428 -6.068341 -6.052102 -6.036195 -6.020422 -6.004764 -5.989217 -5.973796 -5.959885 -5.951155 -5.942592 -5.933859 -5.924946 -5.915848 -5.906547 -5.895941 -5.878522 -5.860027 -5.841853 -5.82403 -5.80659 -5.789649 -5.776749 -5.834431 -5.916916 -5.999812 -6.082871 -6.16603 -6.249215 -6.331885 -6.374751 -6.390134 -6.404754 -6.41892 -6.432668 -6.445986 -6.458689 -6.456057 -6.43257 -6.408906 -6.385343 -6.361913 -6.338635 -6.315565 -6.297439 -6.294531 -6.291957 -6.289491 -6.287095 -6.284711 -6.282101 -6.260842 -6.149576 -6.02505 -5.900347 -5.775668 -5.651074 -5.526658 -5.406098 -5.32397 -5.253422 -5.183519 -5.11414 -5.045244 -4.976762 -4.908113 -4.797553 -4.666815 -4.536867 -4.407928 -4.280037 -4.153203 -4.027407 -3.901042 -3.773399 -3.645928 -3.518652 -3.391576 -3.264718 -3.138211 -3.022875 -2.931507 -2.840309 -2.748941 -2.657346 -2.565456 -2.472962 -2.353693 -2.127899 -1.890993 -1.652378 -1.41224 -1.170667 -0.9278468 -0.6949282 -0.5398381 -0.4029276 -0.2666696 -0.1315551 -0.001717704 -0.0257734 -0.6282473 -0.6646299 -0.5704512 0.04944956 0.04559267 0.0611132 0.07747484 0.2104448 0.9499038 1.240673 1.706921 2.038064 2.559266 4.06431 35.95514 65.52095 69.28769 72.45245 74.87957 77.302 79.2359 81.66672 84.94102 86.54797 89.02103 90.86319 92.97543 94.99627 96.22967 98.25772 99.22234 99.78638 99.99414 100.1944 98.93203 97.24402 95.65628 92.19322 85.36847 80.76362 73.66261 68.41023 63.5576 59.60931 56.18776 53.43417 50.28679 45.8574 43.67509 39.19012 36.94782 32.90626 30.86556 29.78756 26.38202 25.05098 23.31707 20.2602 18.81352 16.13682 14.87329 11.72921 10.43846 9.970613 6.497836 5.999413 5.316717 5.392728 5.37163 5.000849 5.000194 5.000026 4.999928 4.999765 4.998807 4.43947 4.994068 4.999512 4.999869 4.999959 4.999989 5 5.000014 5.000086 5.000291 5.000905 5.004535 5.258488 6.01378 6.23279 7.457224 9.19411 10.54525 14.74656 16.81089 20.13379 22.72631 25.89391 28.49368 32.36009 35.51234 37.70765 40.84377 42.83652 45.59874 48.88028 51.72883 52.02605 54.94753 56.44249 57.99477 59.39721 61.02439 62.74298 64.23172 65.00366 66.01315 66.99899 67.97261 68.01215 68.98912 68.99598 68.7491 68.07392 67.99912 67.35238 67.0019 66.95806 66.02866 66.00195 66.00123 66.00455 66.77782 66.99806 66.99975 67.00084 67.00642 67.45404 67.53775 67.99915 67.99979 67.99994 67.99998 68 67.99997 67.99989 67.9996 67.99854 67.98626 67.01031 67.00101 67.00028 67.0001 67.00003 67.00009 67.00029 67.00083 67.00414 67.73758 67.99711 67.99818 67.9989 67.99892 67.99135 67.02669 67.01479 67.00462 67.00228 67.00199 67.00024 67.00003 66.99995 66.99987 66.99975 66.99963 66.99955 66.99947 66.99933 66.99913 66.99885 66.99836 66.99695 66.9838 66.03894 66.00111 66.00022 66 66.00002 66.00036 66.00148 66.06123 66.98914 67.00021 67.00692 67.39812 67.99821 67.99974 68.0006 68.00237 68.09415 68.95958
-5.887913 -5.918518 -5.949194 -5.97997 -6.010927 -6.04685 -6.119791 -6.202331 -6.285578 -6.369418 -6.453794 -6.538567 -6.622093 -6.616378 -6.575314 -6.533667 -6.491771 -6.449687 -6.40744 -6.365047 -6.323162 -6.281855 -6.240642 -6.199519 -6.158489 -6.117566 -6.076851 -6.044385 -6.026032 -6.008 -5.990101 -5.972318 -5.954652 -5.937129 -5.922446 -5.917386 -5.912624 -5.9077 -5.902596 -5.897299 -5.891773 -5.883444 -5.860417 -5.83496 -5.809799 -5.784984 -5.760553 -5.736638 -5.718039 -5.773727 -5.854108 -5.934906 -6.015872 -6.096943 -6.178051 -6.258714 -6.304151 -6.327403 -6.349971 -6.372094 -6.393799 -6.415062 -6.435627 -6.435282 -6.408854 -6.382174 -6.355582 -6.329121 -6.302812 -6.27672 -6.256286 -6.251383 -6.24681 -6.242346 -6.23795 -6.233567 -6.228945 -6.204413 -6.089698 -5.963297 -5.836729 -5.710185 -5.583723 -5.457425 -5.334833 -5.244539 -5.163446 -5.08297 -5.003007 -4.923521 -4.844427 -4.765017 -4.634082 -4.480736 -4.328163 -4.176596 -4.026079 -3.876639 -3.72838 -3.58889 -3.457122 -3.325657 -3.194405 -3.063364 -2.932551 -2.802144 -2.686417 -2.599229 -2.512282 -2.425176 -2.337853 -2.250255 -2.162116 -2.050821 -1.851995 -1.645279 -1.436893 -1.226968 -1.015545 -0.802731 -0.5973567 -0.4479312 -0.3104421 -0.1746297 -0.04723183 0.03692655 -0.1583284 -0.6251084 -0.4471404 0.08364394 0.07486401 0.08463082 0.6640437 0.7634971 1.002455 1.018945 1.975585 2.046394 2.176494 5.097075 49.09508 63.8064 68.02084 71.03552 73.67432 75.79401 77.96526 80.19188 82.26266 84.97195 87.18311 89.04046 91.05251 93.39365 95.22642 96.88655 98.45763 99.62186 99.00222 99.08055 99.07936 98.10318 96.41171 94.78174 90.99435 84.63176 80.56564 74.00705 68.57024 63.22538 56.96863 53.4164 51.22214 46.14621 44.34271 41.25397 38.00892 36.03812 31.88474 30.18851 29.91755 26.96014 25.67669 23.30795 20.852 18.91525 16.09595 14.12601 11.53361 10.01516 9.010128 5.963624 5.171688 5.007037 5.002119 5.005548 5.000815 5.000155 5.00001 4.999918 4.99974 4.998265 4.30644 4.994811 4.999553 4.999876 4.999959 4.99999 5 5.000017 5.000106 5.000348 5.001036 5.004492 5.932925 6.030315 6.21837 7.897525 9.918427 10.75515 15.55457 17.24908 19.92208 22.7562 25.09485 28.70474 32.40921 36.27618 38.16611 40.98245 43.11435 46.20814 50.47725 51.00876 52.01613 54.85975 56.79158 58.22678 59.94715 61.01721 62.0285 63.91216 65.00778 66.21688 67.01402 67.995 68.46557 68.99586 68.99806 68.99632 68.85656 68.00422 67.99118 67.01362 66.9973 66.24248 66.00323 66.00159 66.00355 66.30276 66.99766 66.99982 67.00101 67.0066 67.26895 67.9959 67.99935 67.9998 67.99994 67.99998 67.99999 67.99995 67.99984 67.99948 67.99812 67.98414 67.00951 67.0009 67.00025 67.00008 67.00003 67.00008 67.00023 67.00064 67.00367 67.78388 67.96378 67.85612 67.99484 67.99831 67.99692 67.98129 67.26691 67.20055 67.15466 67.00105 67.00021 67.00008 67.00005 67.00003 66.99998 66.99992 66.99987 66.99983 66.99979 66.99969 66.99953 66.99927 66.99865 66.99573 66.31664 66.00179 66.00052 66.00031 66.00044 66.00111 66.00421 66.52358 66.99802 67.00461 67.4445 67.99306 68.00248 68.0052 68.00363 68.01265 68.46722 68.99551
-5.952685 -5.981732 -6.010848 -6.040056 -6.069427 -6.103166 -6.166329 -6.236687 -6.307723 -6.379344 -6.451505 -6.524077 -6.594442 -6.58601 -6.547882 -6.509237 -6.470355 -6.43129 -6.392057 -6.352638 -6.31108 -6.268037 -6.225059 -6.182166 -6.139364 -6.09667 -6.054188 -6.020327 -5.999859 -5.979701 -5.959676 -5.939768 -5.919981 -5.900359 -5.885027 -5.883791 -5.882831 -5.881714 -5.880418 -5.878923 -5.877171 -5.87089 -5.841978 -5.809556 -5.777409 -5.745603 -5.714182 -5.683294 -5.659101 -5.712924 -5.7912 -5.869902 -5.948774 -6.027757 -6.106789 -6.185453 -6.233917 -6.265048 -6.295564 -6.325644 -6.355306 -6.384514 -6.412931 -6.414375 -6.384996 -6.355298 -6.325677 -6.296183 -6.266841 -6.237729 -6.21504 -6.208133 -6.20156 -6.195095 -6.188699 -6.182313 -6.175679 -6.147876 -6.029714 -5.901439 -5.773006 -5.644597 -5.516266 -5.388085 -5.263277 -5.164594 -5.072956 -4.981904 -4.891357 -4.801277 -4.711569 -4.621305 -4.469521 -4.293557 -4.118353 -3.944151 -3.771003 -3.598954 -3.428241 -3.276468 -3.14059 -3.005131 -2.869906 -2.7349 -2.600136 -2.465837 -2.350094 -2.267099 -2.18441 -2.101574 -2.018537 -1.935243 -1.851469 -1.748707 -1.577531 -1.401017 -1.222857 -1.043126 -0.8617532 -0.6787 -0.4996071 -0.3531062 -0.209553 -0.06339043 -0.2616153 0.03531526 -0.4335289 -0.05728716 0.1264019 0.1117239 0.1006203 0.9473878 1.003267 1.014681 1.035609 1.165766 2.287172 2.799511 11.51642 53.61587 60.25007 64.49332 68.42089 71.9765 74.20792 76.00144 78.3154 80.1645 82.71628 85.26469 87.50128 89.53149 90.975 93.05005 94.97827 96.32562 98.38462 98.72091 98.0754 98.08736 98.18464 97.20815 95.69046 93.13529 88.55794 84.16061 80.29612 75.30547 69.88825 64.56334 57.78286 54.32383 50.799 44.90122 42.37421 39.65536 37.01035 35.98159 31.74594 30.58213 29.55721 27.01596 26.0139 23.48296 21.36618 20.62481 16.4738 13.37541 11.00386 9.98317 6.587286 5.13673 5.009908 5.00208 5.001056 5.444764 5.00134 5.000118 4.999992 4.999905 4.99969 5.002015 4.599459 4.997867 4.999636 4.999889 4.999963 4.99999 5 5.000024 5.000133 5.000431 5.00132 5.008248 5.829135 6.335905 6.234705 8.218592 10.01333 13.11871 17.00816 18.62775 20.92761 23.45546 26.42131 29.33205 33.07035 36.34243 38.07066 40.74514 43.91719 46.20441 49.15821 50.99384 52.00437 54.48709 56.8317 58.26608 59.97765 61.45006 62.36864 64.40038 65.03267 66.49211 67.32034 68.00661 68.98652 68.99805 68.99899 68.99841 68.99094 68.1016 67.9994 67.72119 67.00195 66.66039 66.00993 66.00243 66.00743 66.98022 66.99855 67.00005 67.00172 67.04982 67.9304 67.99853 67.99959 67.99985 67.99995 67.99998 67.99997 67.99991 67.99975 67.99924 67.99677 67.44476 67.00443 67.00068 67.0002 67.00007 67.00002 67.00005 67.00015 67.0005 67.05176 67.62135 67.01774 67.33623 67.95452 67.99445 67.94052 67.2215 67.68027 67.88816 67.1 67.00109 67.00024 67.00018 67.00021 67.00024 67.00023 67.00016 67.00007 67 66.99996 66.9999 66.99979 66.99958 66.99909 66.99658 66.42856 66.00227 66.0008 66.00063 66.00101 66.00349 66.53091 66.99197 67.00219 67.50536 67.9916 67.99898 68.00169 68.52838 68.34818 68.97978 68.99344 68.99953
-6.017391 -6.04488 -6.072434 -6.100075 -6.127856 -6.159182 -6.212294 -6.270468 -6.32929 -6.388696 -6.448642 -6.509014 -6.566536 -6.555786 -6.520602 -6.484959 -6.449092 -6.413044 -6.376825 -6.340377 -6.298924 -6.254142 -6.209398 -6.164734 -6.120161 -6.075694 -6.031446 -5.996171 -5.973589 -5.951304 -5.929152 -5.907119 -5.885212 -5.863492 -5.847683 -5.850376 -5.853217 -5.855908 -5.858418 -5.860724 -5.862743 -5.858282 -5.823205 -5.783818 -5.744686 -5.70589 -5.667481 -5.629622 -5.59994 -5.652023 -5.728197 -5.804801 -5.881579 -5.958473 -6.035428 -6.112101 -6.164049 -6.203066 -6.24153 -6.279568 -6.317184 -6.354335 -6.390594 -6.393325 -6.360985 -6.328267 -6.295616 -6.263089 -6.230714 -6.198579 -6.173681 -6.164771 -6.156195 -6.147728 -6.139331 -6.130941 -6.122294 -6.091221 -5.969617 -5.839466 -5.709168 -5.578895 -5.448696 -5.31863 -5.191423 -5.084128 -4.981942 -4.880315 -4.779185 -4.678511 -4.578183 -4.476277 -4.303857 -4.105285 -3.907449 -3.710611 -3.514832 -3.320174 -3.127022 -2.963809 -2.823837 -2.684386 -2.545189 -2.406221 -2.267507 -2.129325 -2.01394 -1.935148 -1.856723 -1.778171 -1.699422 -1.620432 -1.541035 -1.447366 -1.304517 -1.158226 -1.010307 -0.8607254 -0.7091836 -0.5550792 -0.3990256 -0.2395517 0.05522716 0.3364847 0.3823144 0.2034209 0.09290233 0.1419075 0.1572513 0.1131508 0.6551319 1.010809 1.027071 1.903565 1.956032 2.172436 3.464793 34.65574 52.71284 56.8687 60.86954 64.67298 68.32775 71.42283 73.58199 75.89599 78.14887 80.70543 82.86968 85.41048 87.49702 89.03019 90.79633 93.01012 94.9376 95.9942 97.22392 97.70837 96.53828 97.03447 96.99195 96.05389 94.72881 91.48859 86.50877 83.05668 79.61207 76.79014 71.36253 67.1059 60.24361 56.61603 50.5041 44.88762 41.71601 38.60302 37.00921 35.98777 32.15871 31.09064 29.84442 27.78117 26.98858 23.65691 21.9259 20.20299 16.99311 12.17708 10.54585 8.641388 5.189906 5.008572 5.003096 5.001045 5.000416 5.000589 5.000242 5.000047 4.999979 4.999901 4.999603 4.750346 4.493833 4.998072 4.999697 4.999906 4.999968 4.999993 5 5.000035 5.000166 5.000526 5.001596 5.009602 5.989236 6.309818 7.100008 9.145311 10.55728 15.05254 18.17779 20.50032 22.64242 25.38203 27.48061 30.57727 33.39576 36.52721 38.67929 41.68999 44.2609 46.98922 49.61885 50.994 52.05818 54.75613 56.84673 58.8563 60.14105 61.66802 62.55755 64.9893 66.22684 66.83977 67.33173 68.00793 68.9879 68.99895 68.9997 68.9995 68.99795 68.96761 68.01021 67.98966 67.14751 66.99654 66.15595 66.00385 66.0093 66.98773 66.99915 67.00037 67.00271 67.46601 67.99419 67.99921 67.99973 67.99989 67.99996 67.99996 67.99992 67.99983 67.9996 67.99884 67.99416 67.4753 67.00234 67.00044 67.00014 67.00005 67.00001 67.00001 67.00005 67.00022 67.0019 67.01172 67.01159 67.00521 67.01762 67.97742 67.52575 67.00654 67.56389 67.85978 67.01621 67.00066 67.00028 67.00043 67.00072 67.00088 67.00085 67.00059 67.00029 67.0001 67.00003 66.99999 66.99989 66.99972 66.9993 66.99738 66.73727 66.00288 66.00111 66.00105 66.00188 66.01235 66.98973 66.99937 67.03777 67.7244 67.9969 68.00021 68.00414 68.54303 68.9966 68.99847 68.99964 69.00077
-6.082033 -6.107962 -6.133954 -6.160027 -6.186217 -6.214904 -6.257688 -6.303678 -6.350291 -6.397481 -6.445217 -6.493394 -6.538398 -6.525727 -6.49349 -6.460849 -6.427996 -6.394965 -6.361758 -6.328275 -6.286709 -6.240181 -6.19367 -6.147235 -6.100888 -6.054648 -6.008633 -5.971929 -5.947231 -5.922819 -5.89854 -5.874382 -5.850355 -5.826543 -5.810681 -5.81715 -5.823791 -5.830287 -5.836602 -5.842707 -5.848493 -5.845622 -5.804103 -5.75775 -5.711635 -5.665851 -5.620456 -5.575629 -5.540562 -5.591031 -5.665102 -5.739608 -5.814291 -5.889094 -5.963972 -6.038659 -6.094545 -6.141454 -6.187864 -6.233855 -6.279424 -6.324514 -6.368603 -6.372119 -6.336806 -6.301066 -6.265383 -6.229822 -6.194412 -6.159256 -6.132194 -6.121279 -6.1107 -6.10023 -6.089828 -6.079434 -6.068771 -6.034431 -5.909386 -5.77736 -5.645197 -5.513059 -5.380991 -5.24904 -5.119251 -5.003123 -4.890389 -4.778189 -4.666477 -4.555211 -4.444262 -4.330309 -4.137094 -3.91592 -3.695454 -3.475981 -3.257573 -3.040308 -2.824735 -2.650928 -2.506879 -2.363439 -2.220271 -2.077342 -1.934682 -1.792632 -1.67798 -1.603408 -1.529256 -1.454983 -1.380522 -1.305851 -1.230848 -1.146827 -1.032979 -0.9169722 -0.7993883 -0.680105 -0.558349 -0.4282457 -0.2197694 -0.04789625 0.7052907 0.7959259 0.8461627 0.8616022 0.6869827 0.7408287 1.013242 1.040292 1.208629 2.016728 2.045301 2.14 3.209842 18.14814 41.71658 46.56306 53.38573 56.58762 60.92142 65.00909 68.10707 70.88622 73.56115 75.79207 78.2182 80.82613 83.06941 85.40804 87.40256 88.81794 90.70336 92.96349 94.8671 95.77094 95.63583 95.96998 94.15131 95.15398 96.11576 94.93164 92.6075 88.77451 84.7923 82.57388 79.14941 76.0078 71.47211 68.27995 61.3416 56.33822 49.61143 45.55231 42.0956 39.57528 37.56488 36.6967 33.74502 32.61331 31.41582 29.41889 27.84303 24.11849 22.29819 20.24896 17.24089 12.08635 10.15885 6.999091 5.196501 5.005342 5.001908 5.000657 5.00019 5.00008 5.000049 5.00001 4.999967 4.999892 4.999643 4.997083 4.262963 4.997919 4.999691 4.999906 4.999968 4.999993 5.000006 5.000065 5.000256 5.000787 5.002557 5.08996 6.000459 6.224678 7.294076 9.684142 12.01163 16.53729 19.82307 21.63644 24.19742 28.57092 28.70506 31.98534 34.43768 36.71798 39.44343 41.85579 44.50156 46.69999 48.52774 50.58908 51.77888 55.17733 57.09515 58.87339 60.35475 61.68628 62.56881 64.97738 65.79688 67.09933 67.98405 68.41364 68.9968 69.0004 69.00186 69.00146 68.99998 68.99663 68.46819 68.00089 67.76001 67.00254 66.75575 66.0117 66.01363 66.98717 66.99966 67.00115 67.00559 67.41452 67.98988 67.99941 67.99979 67.99991 67.99993 67.99988 67.99979 67.9996 67.99899 67.9963 67.89654 67.00956 67.00123 67.00029 67.00008 67.00001 66.99996 66.99993 66.99992 66.99992 67.00001 67.00021 67.00043 67.00075 67.00279 67.00912 67.00314 67.00651 67.09941 67.00354 67.00103 67.00039 67.0005 67.00624 67.08019 67.0143 67.0446 67.00705 67.00207 67.00032 67.00009 67.00002 66.99992 66.99974 66.9993 66.99726 66.56802 66.00595 66.00242 66.00277 66.00626 66.69473 66.99642 67.00024 67.00806 67.16933 67.99683 68.00189 68.44096 68.99461 68.99897 69.00022 69.00122 69.00285
-6.146629 -6.170995 -6.195422 -6.219923 -6.24452 -6.270343 -6.302531 -6.336344 -6.370756 -6.405742 -6.441277 -6.47727 -6.510086 -6.495888 -6.466601 -6.43696 -6.407117 -6.377099 -6.3469 -6.316375 -6.274471 -6.22619 -6.177907 -6.129698 -6.081575 -6.033559 -5.985775 -5.947624 -5.920809 -5.89427 -5.867864 -5.84158 -5.815433 -5.789534 -5.77392 -5.784131 -5.794565 -5.804861 -5.814975 -5.824873 -5.834421 -5.83291 -5.784674 -5.731357 -5.678262 -5.625495 -5.573119 -5.521327 -5.480982 -5.529962 -5.601931 -5.674335 -5.746919 -5.819626 -5.892422 -5.965126 -6.025403 -6.080204 -6.134553 -6.188489 -6.242003 -6.295024 -6.346929 -6.350726 -6.312426 -6.27366 -6.234944 -6.196345 -6.1579 -6.11972 -6.090541 -6.07762 -6.065034 -6.052558 -6.040151 -6.027748 -6.015069 -5.977461 -5.848979 -5.715076 -5.581048 -5.447045 -5.31311 -5.179274 -5.046721 -4.92154 -4.798261 -4.675492 -4.553202 -4.431349 -4.309783 -4.183533 -3.969221 -3.72545 -3.482359 -3.240258 -2.999227 -2.759363 -2.521386 -2.337832 -2.189726 -2.042301 -1.895165 -1.748286 -1.601685 -1.455773 -1.342232 -1.27189 -1.20201 -1.132024 -1.061874 -0.9915295 -0.920961 -0.847097 -0.7630464 -0.6774734 -0.5906492 -0.5037435 -0.4307956 -0.2759357 -0.04980395 0.2218162 0.722118 0.9977455 1.519406 1.782594 1.866045 1.135733 2.336969 2.522247 2.093435 2.131966 2.859039 8.709299 27.79962 31.64303 44.19018 48.9349 53.88852 57.78937 61.75228 65.70305 68.91753 71.64732 74.00735 76.32204 78.48105 80.94032 83.3075 85.4065 87.24277 88.84263 90.69796 92.56025 94.26115 94.99603 95.67247 95.21011 94.0168 94.7569 94.92368 93.44798 90.10889 86.43582 83.95432 81.24225 79.01072 75.36085 70.46241 66.4966 59.62683 56.22035 49.16343 45.4569 42.9019 40.79215 39.43964 38.1297 36.02985 34.1022 32.70738 30.29212 28.46663 24.38758 22.29516 19.22381 17.55247 11.39396 9.761278 5.746523 5.010162 5.003281 5.001218 5.000402 5.00009 5.000033 5.000018 4.999997 4.999968 4.99991 4.999719 4.997394 4.340703 4.998442 4.999745 4.999921 4.999974 4.999995 5.000016 5.000093 5.000333 5.001018 5.003667 5.427472 6.010633 6.819439 8.276295 10.78707 14.52277 18.38221 20.99457 23.31046 25.90545 28.88352 31.2275 32.82047 35.21447 38.47584 40.0482 42.13007 44.33247 48.51411 49.3853 50.95476 52.11732 55.39388 57.16183 59.17923 60.37052 61.97895 63.01028 65.26323 65.99477 67.00361 67.98333 68.95258 68.99998 69.03266 69.48434 69.1213 69.00762 69.00044 68.99281 68.01125 67.93359 67.01516 66.99808 66.96907 66.97072 66.99834 67.0018 67.00425 67.12305 67.99123 67.99829 67.99966 67.99986 67.99989 67.99985 67.99973 67.99957 67.99924 67.9972 67.39165 67.33431 67.00356 67.00048 67.00007 66.99998 66.99994 66.99989 66.99981 66.99969 66.99957 66.99947 66.99929 66.99924 66.99924 66.99957 67.00008 67.00014 67.0002 67.00031 67.00025 67.00017 67.00018 67.00053 67.00954 67.98219 67.98573 67.86739 67.6629 67.28661 67.00051 67.00011 67.00002 66.99994 66.99977 66.99931 66.99319 66.48545 66.73888 66.00986 66.02571 66.77892 66.9905 66.99941 67.00083 67.01139 67.86623 67.99886 68.00358 68.72393 68.99843 69.00028 69.01013 69.01985 69.02046
-6.212549 -6.235085 -6.257709 -6.28043 -6.303255 -6.325917 -6.34743 -6.369132 -6.391219 -6.413871 -6.437276 -6.461153 -6.482147 -6.466806 -6.440434 -6.413755 -6.386884 -6.359841 -6.332614 -6.305008 -6.262516 -6.212445 -6.162362 -6.11235 -6.062425 -6.012608 -5.963032 -5.923401 -5.894459 -5.865782 -5.837244 -5.808835 -5.780567 -5.752582 -5.737473 -5.751407 -5.765606 -5.779673 -5.793561 -5.807228 -5.820519 -5.820134 -5.764914 -5.70465 -5.644597 -5.584867 -5.525526 -5.466784 -5.421267 -5.468879 -5.538733 -5.609023 -5.679495 -5.750095 -5.820796 -5.891459 -5.956609 -6.01929 -6.081553 -6.143412 -6.204847 -6.265779 -6.325474 -6.329041 -6.287738 -6.245942 -6.204188 -6.162552 -6.121068 -6.079865 -6.048611 -6.033682 -6.019085 -6.004597 -5.990178 -5.975762 -5.961061 -5.920186 -5.788268 -5.652488 -5.516595 -5.380729 -5.244927 -5.109208 -4.973715 -4.839268 -4.705454 -4.57213 -4.439277 -4.306851 -4.174679 -4.035894 -3.800194 -3.533838 -3.268139 -3.003425 -2.739785 -2.477335 -2.216981 -2.024533 -1.872391 -1.72099 -1.569901 -1.419064 -1.268523 -1.118759 -1.006707 -0.9406093 -0.8750165 -0.8093413 -0.7435226 -0.6775523 -0.6114911 -0.5488634 -0.4950705 -0.4404553 -0.3864515 -0.3583777 -0.8195798 -0.3254774 -0.03055434 0.4935323 0.769776 0.8814558 1.894367 2.014999 2.065848 2.77806 4.235616 6.319557 7.178609 29.09521 47.4242 48.47497 45.38302 32.37312 46.2825 51.21784 55.73472 59.51231 62.73698 66.61955 69.38188 72.41949 74.53477 76.76964 78.86324 81.05345 83.30375 85.40601 87.36295 88.9063 90.68301 92.10912 93.99199 94.71781 95.45879 94.20829 93.97449 94.01551 93.52546 90.3297 88.49881 84.50381 82.94508 80.3167 78.74211 73.54176 68.86362 62.14095 57.34188 55.12908 48.46623 46.80604 44.43092 42.93343 42.0614 41.98502 39.94664 35.6475 33.43104 30.70859 28.65816 24.37373 22.29008 18.59047 16.14449 10.63646 8.985353 5.469491 5.008485 5.003305 5.001535 5.000616 5.000155 5.000051 5.000022 4.999998 4.999964 4.999905 4.999716 4.997542 4.397241 4.998451 4.999743 4.999916 4.999971 4.999999 5.00004 5.000169 5.00058 5.001903 5.008351 5.966847 6.021106 7.46476 9.566252 11.13791 16.89421 19.9206 22.49114 24.98586 27.95481 29.86046 31.95103 34.33998 36.33988 38.89919 40.21178 42.83524 45.1951 47.1993 49.30232 51.50187 52.88964 55.67916 57.49619 59.08381 60.48625 61.98656 63.54137 65.00263 66.09473 67.00906 67.98442 68.98472 69.13602 69.98633 69.99518 69.99258 69.97813 69.03842 68.99684 68.12335 67.99949 67.75523 67.00918 67.00111 67.00002 67.00092 67.49735 67.42496 67.89479 67.99717 67.99917 67.99967 67.99981 67.99977 67.99956 67.99921 67.99863 67.99734 67.97298 67.07761 67.00233 67.00053 66.99983 66.99975 66.99979 66.99977 66.99968 66.9994 66.99878 66.99764 66.99534 66.86268 66.99272 66.98629 66.9566 66.9981 66.99902 66.9991 66.99924 66.9995 66.99976 67.00002 67.00043 67.00347 67.63097 67.98517 67.60419 67.56151 67.14114 67.00067 67.00014 67.00003 66.99994 66.99972 66.99873 66.89584 66.03133 66.66813 66.98346 66.98849 66.9966 66.99918 67.00029 67.00246 67.32736 67.99127 68.00028 68.09087 68.98589 68.99905 69.00211 69.71614 69.86501 69.98803
-6.287215 -6.307078 -6.327053 -6.34715 -6.367363 -6.386881 -6.402727 -6.418255 -6.433969 -6.449876 -6.465963 -6.482163 -6.495242 -6.477853 -6.45189 -6.425735 -6.399478 -6.373133 -6.346681 -6.319876 -6.274605 -6.220874 -6.167195 -6.113657 -6.060281 -6.007088 -5.954224 -5.912241 -5.880818 -5.849572 -5.818604 -5.787984 -5.757462 -5.727199 -5.711815 -5.726935 -5.742568 -5.758308 -5.774108 -5.789926 -5.805591 -5.8055 -5.744339 -5.678344 -5.612281 -5.546262 -5.480355 -5.414778 -5.363933 -5.40944 -5.476358 -5.544093 -5.61235 -5.680744 -5.749255 -5.817924 -5.888099 -5.958478 -6.028482 -6.098104 -6.16732 -6.23604 -6.303421 -6.30622 -6.261909 -6.217098 -6.172333 -6.127688 -6.083201 -6.039013 -6.005769 -5.988866 -5.972273 -5.955756 -5.939304 -5.922858 -5.906121 -5.861974 -5.726629 -5.588981 -5.451233 -5.313514 -5.175861 -5.038277 -4.899694 -4.75581 -4.61152 -4.467701 -4.324345 -4.181404 -4.03868 -3.887164 -3.629828 -3.340944 -3.052689 -2.765411 -2.479209 -2.194217 -1.911534 -1.711057 -1.554918 -1.399555 -1.244506 -1.089717 -0.9352404 -0.7816405 -0.6714615 -0.609642 -0.5483742 -0.4870462 -0.425622 -0.3641424 -0.3027665 -0.252956 -0.2303794 -0.2096319 -0.2075807 -0.7530604 -0.8512961 -0.02539032 0.549851 0.7694699 0.9238131 1.696963 2.020213 2.053966 2.986333 5.123354 15.91036 39.69809 59.65519 56.36558 52.49902 49.63485 45.37215 39.59113 48.75646 53.26046 57.07079 60.75463 64.18232 67.24306 70.28796 72.88931 75.52106 77.36623 79.14349 81.20138 83.45074 85.23178 86.73546 88.9942 90.68091 92.06242 93.98559 94.0186 94.72075 94.42067 93.13633 92.1099 91.39362 88.39776 86.27428 83.97736 82.32819 79.27822 77.92387 71.57076 67.42186 59.8298 56.44389 54.75546 50.16915 48.8776 47.68685 47.6171 48.64769 46.161 40.45261 36.78432 33.90516 30.62856 27.50257 24.38313 22.258 17.60794 14.06003 9.862327 8.904559 5.060786 5.011895 5.02031 5.01075 5.009898 5.000387 5.00007 5.000025 5 4.999969 4.999921 4.999779 4.998544 4.976691 4.999034 4.99978 4.999925 4.999973 5.000007 5.000062 5.000237 5.000868 5.004225 5.510125 6.004907 6.984952 7.649205 9.78728 11.47687 18.78351 21.02123 23.97433 26.32451 28.74585 31.64236 33.21527 35.09729 37.41224 39.53846 40.8766 42.88069 45.20607 47.25666 48.99581 52.94857 53.59533 55.68507 57.5093 59.2533 60.92516 61.9989 63.55573 64.99955 66.12519 67.6402 68.31584 69.00044 69.97559 69.99761 69.99868 69.99835 69.99501 69.06361 69.00066 68.98337 68.02418 67.99728 67.86594 67.01044 67.00224 67.00137 67.03294 67.40462 67.69071 67.99567 67.99873 67.99917 67.99972 67.9995 67.99783 67.99689 67.99039 67.68798 67.01901 67.00173 66.99997 66.99772 66.99622 66.99857 66.99935 66.99947 66.99935 66.99828 66.98015 66.76134 66.24295 66.01552 66.46157 66.0211 66.29274 66.98668 66.99249 66.97536 66.98099 66.99723 66.99881 66.99973 67.00013 67.00086 67.01079 67.05795 67.02656 67.13326 67.04638 67.0005 67.00012 67.00005 66.99997 66.99973 66.99496 66.49738 66.99019 66.99794 66.99883 66.99921 66.99974 67.00033 67.00119 67.00868 67.83241 67.99849 68.00125 68.01285 68.96994 68.99957 69.00257 69.42075 69.99637 69.99883
-6.363597 -6.380734 -6.397984 -6.415351 -6.432829 -6.449313 -6.461087 -6.47248 -6.484054 -6.495811 -6.507742 -6.519788 -6.528736 -6.510963 -6.48617 -6.461208 -6.436152 -6.411009 -6.385754 -6.360085 -6.312152 -6.255043 -6.19798 -6.141058 -6.084298 -6.027725 -5.971513 -5.928308 -5.896647 -5.865169 -5.833735 -5.802335 -5.770985 -5.739851 -5.722794 -5.731992 -5.741874 -5.75209 -5.762592 -5.773342 -5.784171 -5.780127 -5.720503 -5.657159 -5.593494 -5.529611 -5.465574 -5.401597 -5.35227 -5.392161 -5.450483 -5.509571 -5.569204 -5.629329 -5.689929 -5.751109 -5.815165 -5.880645 -5.946743 -6.013449 -6.080734 -6.148502 -6.215844 -6.214635 -6.167673 -6.120546 -6.073774 -6.027433 -5.98156 -5.936294 -5.902538 -5.884535 -5.866551 -5.847487 -5.828794 -5.810417 -5.792046 -5.745085 -5.609117 -5.47198 -5.334913 -5.198037 -5.061385 -4.924959 -4.78674 -4.638769 -4.489457 -4.34017 -4.190905 -4.041607 -3.892059 -3.730898 -3.454678 -3.145314 -2.83496 -2.525519 -2.217127 -1.909934 -1.605222 -1.397692 -1.237599 -1.078282 -0.919284 -0.7605529 -0.6021531 -0.4447476 -0.3368601 -0.2793932 -0.2225177 -0.1656361 -0.1087606 -0.0520517 0.003881312 0.037979 0.02334814 -0.05655006 -0.7028664 -0.7801271 -0.04209897 0.01853491 0.8649143 1.007676 1.293498 2.029901 2.078792 2.433589 6.829251 60.44838 65.12332 62.9086 60.44441 57.43516 53.39425 50.07487 46.64965 41.3722 50.42876 54.79627 58.60434 62.35056 65.35602 68.207 71.03862 74.24329 75.69951 77.68098 79.64655 81.618 83.24307 85.00967 86.37608 88.98553 91.1046 92.14979 93.97021 93.99792 94.00224 94.00672 92.03136 90.99087 89.1984 87.48154 84.64068 83.46797 81.29749 78.77048 74.14323 68.11113 64.93269 59.56502 57.42977 56.50055 54.13597 53.70581 53.94898 55.22697 53.61711 47.91385 39.85798 35.95818 33.09505 30.37871 27.32209 24.36004 21.90564 17.17178 13.03829 9.639671 6.756423 5.106544 6.044011 6.007374 5.735592 5.128529 5.000605 5.000089 5.000029 5.000001 4.999969 4.999918 4.999751 4.997515 4.526825 4.99825 4.999714 4.99991 4.99997 5.000021 5.000109 5.000396 5.001496 5.011163 5.950973 6.005758 6.986416 8.175564 10.70623 15.74294 18.89636 21.33519 24.30478 28.52315 30.01512 31.14084 33.6495 35.83898 38.03096 40.03619 41.56833 43.82388 45.80561 47.22969 49.11928 52.95355 53.96165 55.79324 57.36758 59.25573 60.94297 62.00722 63.56108 64.72691 66.93603 67.98557 68.90874 69.14001 69.99399 69.99908 69.99981 69.99954 69.99747 69.73231 69.00387 68.99808 68.85947 68.00661 67.9968 67.9378 67.31709 67.00246 67.00906 67.41515 67.07061 67.84343 67.99581 67.9962 67.99942 67.99861 67.97142 67.66923 67.02803 67.0043 67.00168 66.99995 66.99618 66.61564 66.14576 66.9681 66.99564 66.99659 66.99846 66.99345 66.09134 66.00632 66.00228 66.00179 66.00248 66.00238 66.00475 66.31627 66.08878 66.00943 66.10078 66.62483 66.98773 66.99911 66.99993 67.00025 67.00079 67.00507 67.53989 67.00815 67.00264 67.00035 67.00016 67.00011 67.00005 66.99987 66.99828 66.86943 66.99874 66.99961 66.99986 67.00021 67.00081 67.00185 67.00828 67.17105 67.99355 68 68.0034 68.6204 68.99406 69 69.00482 69.62419 69.99722 69.99962
-6.43988 -6.45429 -6.468812 -6.483449 -6.498192 -6.51162 -6.519301 -6.526585 -6.534045 -6.541689 -6.549507 -6.55745 -6.562429 -6.54444 -6.520837 -6.497084 -6.47324 -6.44931 -6.42526 -6.400518 -6.349928 -6.289448 -6.229008 -6.168705 -6.108564 -6.048615 -5.98906 -5.944798 -5.912934 -5.881261 -5.849634 -5.818038 -5.786489 -5.755142 -5.736606 -5.739746 -5.743505 -5.747592 -5.751969 -5.756598 -5.761327 -5.752668 -5.696221 -5.637362 -5.578197 -5.518813 -5.459269 -5.399765 -5.354311 -5.387857 -5.436355 -5.485576 -5.535334 -5.585586 -5.636316 -5.68749 -5.738858 -5.790751 -5.843275 -5.896423 -5.950169 -6.004414 -6.058227 -6.043197 -5.986434 -5.929566 -5.873064 -5.816996 -5.761399 -5.706398 -5.661258 -5.628483 -5.596579 -5.565386 -5.534874 -5.504974 -5.475355 -5.416369 -5.275678 -5.134084 -4.992724 -4.851707 -4.711071 -4.570833 -4.430841 -4.290154 -4.149015 -4.007497 -3.865582 -3.723214 -3.580157 -3.423335 -3.150153 -2.845315 -2.539532 -2.233181 -1.926369 -1.619257 -1.313183 -1.105796 -0.9422108 -0.7792597 -0.6165423 -0.4540124 -0.2917624 -0.1305681 -0.02643586 0.02478142 0.07562134 0.1266795 0.1777595 0.2280662 0.2745153 0.2783515 0.04081685 -0.6510608 -0.7035785 0.01483632 0.01035888 0.0333025 1.006757 1.185665 1.978279 2.332114 3.630002 26.87306 65.93848 66.80469 65.87699 63.63552 60.87898 58.42893 54.16988 50.5927 42.40401 43.01857 51.42797 56.46463 60.40395 63.21357 66.63212 69.11301 71.34347 74.39947 75.73269 78.03371 79.73746 81.19158 82.68292 84.62531 85.97578 88.59065 90.05134 91.38457 93.73471 94.06296 93.68961 92.48627 91.0011 90.09992 88.36597 86.92465 84.0358 82.48829 79.96378 77.7715 72.83084 68.01958 63.82883 62.17506 60.41581 60.23534 61.32732 61.76572 61.06417 59.196 54.48734 47.40212 39.40892 35.03771 32.34197 29.02566 26.01434 24.01097 20.36088 17.16192 11.41812 9.616881 5.79107 5.009599 5.005648 5.004543 5.003178 5.001243 5.000226 5.00006 5.000022 5 4.999971 4.999928 4.999795 4.998788 4.451439 4.99677 4.99963 4.999903 4.999977 5.000039 5.000165 5.00059 5.002459 5.039062 5.994287 6.006615 6.800615 9.156079 11.12591 15.50259 18.51621 21.42579 24.47425 28.67109 31.28563 32.92988 34.09894 36.32452 39.16461 40.33319 41.64816 44.58458 45.59434 47.35486 49.12872 52.486 53.8728 55.78981 57.73495 59.25639 60.73288 62.01252 63.71594 64.3168 66.88338 67.86392 68.9915 69.96323 69.99989 70.00317 70.00448 70.0198 69.99973 69.99358 69.02135 69.00021 68.99191 68.13116 68.00066 67.99765 67.59378 67.00522 67.03288 67.15309 67.01968 67.93523 67.99863 67.99921 67.9985 67.99434 67.35619 67.16003 67.00632 67.00087 67.00021 66.99736 66.26253 66.09324 66.00718 66.0265 66.49704 66.57254 66.99506 66.98966 66.0752 66.00192 66.0008 66.00063 66.0007 66.00089 66.00123 66.00178 66.00161 66.00164 66.00288 66.00759 66.77428 66.99837 66.99982 67.00007 67.00024 67.00069 67.00185 67.00103 67.00046 67.00031 67.00031 67.00038 67.00037 67.00021 66.99999 66.99985 67 67.00021 67.00058 67.0015 67.0051 67.05595 67.79826 67.99525 67.99969 68.00288 68.01282 68.72279 68.99879 69.0006 69.00729 69.88896 69.99866 70.00295
-6.51604 -6.527722 -6.539515 -6.551423 -6.563431 -6.573775 -6.577334 -6.580512 -6.583865 -6.587402 -6.591116 -6.594964 -6.596093 -6.578031 -6.555621 -6.533077 -6.510448 -6.487729 -6.464882 -6.44083 -6.387599 -6.323752 -6.259933 -6.196249 -6.132728 -6.069402 -6.006508 -5.961337 -5.929276 -5.897412 -5.865595 -5.83381 -5.802068 -5.770507 -5.750215 -5.747283 -5.744904 -5.742846 -5.741078 -5.739568 -5.738184 -5.725132 -5.672153 -5.617804 -5.563169 -5.508316 -5.453298 -5.398295 -5.356428 -5.383259 -5.421916 -5.461257 -5.501123 -5.541481 -5.582311 -5.62335 -5.661845 -5.700027 -5.738833 -5.778265 -5.818295 -5.858825 -5.898918 -5.870083 -5.803394 -5.736662 -5.6703 -5.604374 -5.538915 -5.474026 -5.417087 -5.369318 -5.322377 -5.276152 -5.23061 -5.185686 -5.141026 -5.06634 -4.917089 -4.767053 -4.617266 -4.46783 -4.318786 -4.170179 -4.024647 -3.890415 -3.757041 -3.623309 -3.489181 -3.354594 -3.219304 -3.068823 -2.803709 -2.509506 -2.214382 -1.918668 -1.622468 -1.325945 -1.03059 -0.8279157 -0.6625521 -0.4977494 -0.3331987 -0.1688859 -0.004931321 0.1576562 0.2534724 0.2925737 0.3310384 0.369739 0.4073985 0.4392709 0.4236292 -0.5189105 -0.6118666 -0.6135981 0.01047442 0.02465109 0.008796874 0.04367386 1.121489 2.061966 2.657126 3.786172 40.88341 67.56679 67.80777 66.93719 66.00309 63.72842 61.57167 58.94727 54.55129 51.11891 44.19981 47.82152 52.3605 57.40061 61.23747 63.97696 67.03631 69.22633 71.62061 74.00608 75.83678 77.87862 79.74725 81.07786 82.63252 84.01013 85.50917 87.62064 88.89097 89.96294 90.87418 91.53242 90.91374 91.03424 90.72797 89.77391 87.906 86.43934 83.99614 81.82438 79.39397 76.68277 72.41519 69.57445 67.75123 68.13307 67.76994 67.46969 67.19293 66.8814 64.54334 60.831 54.3241 45.57557 38.22767 34.13186 31.55469 27.54916 26.23298 21.19668 19.68319 16.95535 11.00546 8.82599 5.37824 5.007178 5.002733 5.001283 5.000617 5.00024 5.000088 5.000034 5.000014 4.999999 4.999974 4.999938 4.99983 4.99905 4.637374 4.99202 4.999551 4.999901 4.999988 5.000064 5.000243 5.000906 5.004506 5.506754 6.002366 6.018052 7.134273 10.03566 12.57378 15.69023 19.09163 22.49418 24.99252 29.02901 31.88054 33.36846 34.23906 36.84853 39.025 40.71667 42.04471 44.80888 46.07182 47.91109 50.18308 52.49225 54.27127 55.8989 57.78389 59.25832 60.64227 62.17455 63.58236 64.70477 66.74727 68.07648 69.28636 69.99596 70.02124 70.90139 70.58171 70.41563 70.00385 69.99757 69.48412 69.00169 68.9954 68.22045 68.00215 67.9994 67.9603 67.38354 67.82033 67.97393 67.96833 67.99524 67.99885 67.99767 67.78504 67.6629 67.01347 67.00272 67.00101 67.00032 66.99998 66.99885 66.98458 66.02236 66.00502 66.00602 66.05559 66.40699 66.89187 66.90047 66.00974 66.00145 66.00064 66.00054 66.00069 66.001 66.00127 66.00136 66.0014 66.00191 66.00426 66.06025 66.8848 66.99876 66.99987 67.00008 67.00019 67.00034 67.00049 67.00054 67.00056 67.00068 67.00102 67.00185 67.00256 67.00145 67.00048 67.00037 67.00048 67.00092 67.00214 67.00655 67.8112 67.99106 67.99785 67.99988 68.00365 68.10371 68.93301 68.99675 68.99984 69.00136 69.23721 69.98866 69.99966 70.05509
-6.592069 -6.601024 -6.610088 -6.619267 -6.62854 -6.635773 -6.635175 -6.634249 -6.633497 -6.63293 -6.632543 -6.6323 -6.629694 -6.611698 -6.590482 -6.569149 -6.547732 -6.526226 -6.50458 -6.48112 -6.425129 -6.357913 -6.290716 -6.22365 -6.156748 -6.090046 -6.023817 -5.977882 -5.945627 -5.913575 -5.88157 -5.849596 -5.817661 -5.785881 -5.76356 -5.754548 -5.746026 -5.737819 -5.729902 -5.722249 -5.714747 -5.697406 -5.648298 -5.598468 -5.548369 -5.498055 -5.447568 -5.39707 -5.358488 -5.378232 -5.407042 -5.436496 -5.466468 -5.496924 -5.527844 -5.558656 -5.584163 -5.608614 -5.633681 -5.65937 -5.685659 -5.71245 -5.738801 -5.696317 -5.619689 -5.543077 -5.46684 -5.39104 -5.315702 -5.240902 -5.171908 -5.109115 -5.047108 -4.985811 -4.925197 -4.865203 -4.805464 -4.715333 -4.557485 -4.398968 -4.240713 -4.082817 -3.925326 -3.768318 -3.617567 -3.490208 -3.364619 -3.238696 -3.112384 -2.985614 -2.858131 -2.714105 -2.457208 -2.17372 -1.889329 -1.604349 -1.318888 -1.0331 -0.7494656 -0.5501956 -0.3830836 -0.2165062 -0.05023051 0.1156737 0.2809423 0.4440152 0.5286329 0.5486755 0.5602801 0.5842365 0.5948455 0.3812244 -0.541988 -0.6082661 -0.5735174 -0.232842 0.004109138 0.01686953 0.1041791 1.041007 2.001644 3.318789 7.615539 50.19846 67.72436 67.92337 67.95117 67.55169 66.46307 64.14492 61.81245 59.75564 55.1468 52.04627 45.64099 51.08514 52.63511 56.88137 60.32299 64.04879 66.9289 69.11588 71.72117 73.92835 75.99178 77.91634 79.53982 80.88239 82.8961 83.36653 84.36201 86.98575 88.69321 89.29984 89.44083 90.31343 90.17209 90.01521 89.73978 89.5718 87.8973 85.62113 84.1005 81.98105 79.84883 77.16801 74.6228 73.92128 72.70292 71.82864 71.80056 71.79256 71.60196 69.42957 65.39728 61.47895 51.74646 43.63468 37.34342 33.5266 30.85536 26.87539 25.98776 20.05703 19.88897 16.58984 10.70159 8.236951 5.568068 5.007256 5.002499 5.000981 5.00035 5.000107 5.000041 5.000016 5.000007 4.999998 4.999977 4.999949 4.999871 4.999413 4.971477 4.991806 4.999592 4.999918 5.000007 5.000105 5.000373 5.001672 5.034781 5.94074 6.321909 7.121367 8.45618 10.81315 14.08279 15.94759 19.18536 21.9368 25.28592 28.74022 31.62792 33.34334 34.72936 37.12235 39.94341 41.01007 42.4149 45.09409 46.30045 48.05 50.96058 52.77796 54.10427 56.05775 57.82919 59.66665 60.95097 62.01506 63.5479 64.70964 66.74887 68.03613 69.89854 70.00813 70.98482 70.99657 70.99656 70.99023 70.48475 70.00274 69.84222 69.01152 68.99883 68.83983 68.0058 68.00056 67.99928 67.99722 67.80435 67.97872 67.88212 67.99512 67.9981 67.84664 67.67579 67.27571 67.00513 67.00098 67.00038 67.00011 66.99992 66.99944 66.99518 66.86941 66.41848 66.37392 66.57372 66.87749 66.9958 66.92786 66.01038 66.00175 66.00096 66.00106 66.00191 66.00632 66.00836 66.00879 66.01077 66.07766 66.67303 66.98756 66.99799 66.99969 67.00016 67.00031 67.00044 67.00063 67.00089 67.00127 67.00183 67.00436 67.01688 67.17422 67.53847 67.04772 67.00146 67.00144 67.00214 67.00505 67.1104 67.76598 67.99112 67.99903 68.00031 68.00283 68.13937 68.91852 68.9973 68.9996 69.00095 69.00451 69.40674 69.99342 69.99989 70.00499
-6.667963 -6.674189 -6.680526 -6.686976 -6.693516 -6.697608 -6.692819 -6.687791 -6.682936 -6.678266 -6.673779 -6.669446 -6.663221 -6.645428 -6.625409 -6.605286 -6.585083 -6.564788 -6.544343 -6.521375 -6.462504 -6.39192 -6.321343 -6.250896 -6.180614 -6.110536 -6.040974 -5.994422 -5.961977 -5.929737 -5.897544 -5.865381 -5.833252 -5.801247 -5.776625 -5.761526 -5.746859 -5.732502 -5.718434 -5.704637 -5.691015 -5.669384 -5.624655 -5.579349 -5.533788 -5.488013 -5.442061 -5.396066 -5.360462 -5.372746 -5.391706 -5.411272 -5.431345 -5.451897 -5.472903 -5.493402 -5.505815 -5.516529 -5.527848 -5.539788 -5.552328 -5.565371 -5.577976 -5.522012 -5.435442 -5.348946 -5.26283 -5.177151 -5.091929 -5.00721 -4.925917 -4.848088 -4.771006 -4.694628 -4.618934 -4.543861 -4.469038 -4.363751 -4.197304 -4.030297 -3.863567 -3.697205 -3.531259 -3.365849 -3.210221 -3.090154 -2.972357 -2.854253 -2.735765 -2.616822 -2.49716 -2.359667 -2.111079 -1.838329 -1.564694 -1.290481 -1.015798 -0.7407827 -0.4687651 -0.2724811 -0.1036591 0.06457076 0.2323202 0.399273 0.5644217 0.723169 0.7709242 0.5067461 -0.4599437 -0.4432 -0.6087818 -0.6859344 -0.6815539 -0.6952311 -0.1693143 0.01290346 0.4318893 0.9793161 1.049627 2.073751 3.568731 11.30558 65.32697 68.43419 68.18414 67.97675 67.98255 67.84026 66.48773 64.71121 61.78666 59.43742 54.60122 52.08089 47.78984 53.57163 55.67176 56.95741 59.62456 63.30757 66.37424 69.07864 71.38554 73.26079 75.75388 77.40544 79.57397 80.01295 82.2302 82.9946 84.01152 86.01118 87.40791 88.00648 88.02398 89.04485 89.99021 90.00134 89.97784 89.46704 88.73475 86.52145 85.27501 83.4501 81.54893 79.05862 77.57097 76.14626 75.21082 75.83736 75.36965 74.90824 73.43243 69.90614 65.43755 60.93373 49.88436 42.32704 36.71822 33.82076 30.65978 27.02242 23.81879 20.01604 19.5618 14.7645 9.809197 8.013605 6.014471 5.011022 5.00314 5.00102 5.000311 5.000082 5.000021 5.000006 5.000004 5.000007 4.999995 4.999975 4.999925 4.999662 4.973456 4.993157 4.999928 4.999977 5.000031 5.000127 5.000435 5.002204 5.158427 5.999698 6.890175 7.012906 8.305494 10.99511 13.81375 16.01168 18.5635 21.16169 24.5 27.17567 30.7565 33.25968 35.161 36.72535 39.96309 41.31952 42.85704 45.1172 46.83217 48.87694 51.64423 53.00068 54.84353 55.51003 57.17796 59.29276 60.95496 62.47913 63.04711 64.96577 66.93282 68.22384 69.9468 70.64377 70.99632 70.99866 70.99874 70.99728 70.95455 70.29022 69.99651 69.24327 69.00043 68.98907 68.07644 68.00124 68.00009 67.99966 67.99917 67.99702 67.98436 67.9517 67.99554 67.55967 67.02777 67.00431 67.00118 67.00045 67.00018 67.00005 66.99994 66.99973 66.99885 66.68958 66.99455 66.99761 66.99844 66.98357 66.99607 66.99349 66.1045 66.00332 66.00227 66.00386 66.02024 66.52062 66.95015 66.96832 66.98838 66.97792 66.99721 66.99899 66.99992 67.00051 67.00089 67.00111 67.00127 67.00174 67.00272 67.00628 67.01681 67.67413 67.99201 67.98734 67.16701 67.00672 67.00484 67.01264 67.24042 67.75455 67.99194 67.99751 67.9995 68.00076 68.0024 68.2593 68.98847 68.9979 68.99947 69.00058 69.00523 69.71338 69.9783 69.99855 70.00014 70.00279
-6.743713 -6.747213 -6.750823 -6.754546 -6.758352 -6.759277 -6.750262 -6.741132 -6.732175 -6.723404 -6.714818 -6.706398 -6.696667 -6.679215 -6.660394 -6.641481 -6.62249 -6.603407 -6.58416 -6.561587 -6.499719 -6.425763 -6.351808 -6.277981 -6.204318 -6.130865 -6.057972 -6.010951 -5.978319 -5.945889 -5.913509 -5.881157 -5.848833 -5.816598 -5.789401 -5.76821 -5.747397 -5.726888 -5.70667 -5.686728 -5.666994 -5.641556 -5.601222 -5.56044 -5.519418 -5.478183 -5.436765 -5.395269 -5.362339 -5.366791 -5.375895 -5.385571 -5.395744 -5.406391 -5.41748 -5.427581 -5.426799 -5.423771 -5.42134 -5.419528 -5.418315 -5.417606 -5.416379 -5.347191 -5.250687 -5.154305 -5.058308 -4.962748 -4.867641 -4.772996 -4.679166 -4.586296 -4.494134 -4.402673 -4.311895 -4.221742 -4.131837 -4.011691 -3.836649 -3.66115 -3.485943 -3.311112 -3.136712 -2.962901 -2.802741 -2.690384 -2.580386 -2.470104 -2.359445 -2.248333 -2.136497 -2.005605 -1.765409 -1.50341 -1.240562 -0.9771521 -0.7132573 -0.4490224 -0.1883801 0.005209687 0.1756244 0.3452301 0.5136074 0.6789258 0.8347082 0.9020559 -0.01491057 0.1017649 0.2222311 0.1470963 -0.1506757 -0.3581003 -0.2389127 0.004360243 0.05797071 0.9051686 1.843357 2.047412 2.590972 4.695449 30.0667 68.27081 68.83996 68.92711 68.96979 68.73308 68.06861 67.84692 66.75001 64.70865 62.127 59.29248 54.59469 52.70068 51.62976 56.99956 60.60942 60.81656 60.66018 63.02917 65.21799 67.6539 70.77046 72.87991 74.54022 76.13411 77.68917 79.18793 81.10648 82.01881 83.03554 85.10863 86.79195 87.46146 88.00791 88.96525 90.18882 90.71874 90.00562 90.10835 89.17046 88.35854 86.79747 85.56316 83.50118 81.34959 79.88905 78.59814 78.7098 77.74014 76.90654 74.11761 73.86337 70.03513 65.30141 58.30068 47.9275 41.55395 36.92151 33.07389 29.40182 26.98758 22.45494 19.88612 18.8813 13.29871 9.612466 8.034536 6.417656 5.852709 5.190565 5.001689 5.000429 5.000118 5.000042 5.000031 5.000041 5.000052 5.00005 5.000031 4.99998 4.999729 4.892568 5.461802 5.000827 5.000071 5.000071 5.000186 5.000616 5.003329 5.585043 6.001541 6.31326 7.022976 8.53654 11.04887 13.388 16.04391 18.38323 21.17262 23.99334 27.03158 30.38134 32.49063 35.21001 37.08307 39.55928 41.74224 43.61902 45.12831 47.15478 48.94088 51.91468 53.00028 54.58298 55.88767 57.63155 59.25877 60.93538 61.98765 63.12817 65.10409 66.99237 68.37354 70.26772 70.99104 70.99818 70.99922 70.9993 70.99854 70.99265 70.15269 69.99825 69.32758 69.00166 68.99282 68.08295 68.00246 68.0005 68.00005 67.99979 67.99936 67.99658 67.97789 67.77313 67.00962 67.00191 67.00093 67.00056 67.00095 67.00039 67.00004 66.99994 66.99981 66.99955 66.99915 66.99921 66.9994 66.99952 66.9994 66.99915 66.9976 66.76786 66.41064 66.11811 66.75106 66.98914 66.99361 66.9978 66.99844 66.99895 66.99934 66.99983 67.00059 67.00179 67.00342 67.01127 67.11079 67.01563 67.03429 67.17638 67.80431 67.99013 67.99754 67.9989 67.99824 67.96052 67.743 67.74559 67.98934 67.99696 67.99877 67.99995 68.00085 68.00215 68.00907 68.48428 68.88894 68.99802 68.99945 69.00022 69.00172 69.4358 69.99497 69.99841 69.99948 70.00033 70.00218
-6.819308 -6.820084 -6.82097 -6.821966 -6.823039 -6.820731 -6.807495 -6.794266 -6.781209 -6.768338 -6.755655 -6.743151 -6.730027 -6.713054 -6.695431 -6.677728 -6.659948 -6.642075 -6.624026 -6.601748 -6.536763 -6.459436 -6.382102 -6.304895 -6.227853 -6.151026 -6.074806 -6.027461 -5.994644 -5.962027 -5.929459 -5.896917 -5.864398 -5.831929 -5.801883 -5.774594 -5.747635 -5.720974 -5.694604 -5.668519 -5.64268 -5.613923 -5.577992 -5.541735 -5.505252 -5.468557 -5.431671 -5.394671 -5.364106 -5.360353 -5.359599 -5.359383 -5.359655 -5.360394 -5.361564 -5.361185 -5.347108 -5.330335 -5.314151 -5.298585 -5.283619 -5.269156 -5.253398 -5.171846 -5.065428 -4.959162 -4.853286 -4.747846 -4.642852 -4.538278 -4.431675 -4.323758 -4.216517 -4.109973 -4.004111 -3.898876 -3.793895 -3.65919 -3.475558 -3.291569 -3.107885 -2.924585 -2.741732 -2.559525 -2.395176 -2.290948 -2.188752 -2.086294 -1.983465 -1.880187 -1.776181 -1.65196 -1.420256 -1.169028 -0.9169733 -0.6643587 -0.4112673 -0.1578364 0.09164812 0.2827536 0.4545798 0.6249018 0.7904852 0.9295858 0.804922 -0.2189896 0.2284357 0.2996516 0.349208 0.2450666 0.6912506 0.3009 0.2869529 0.8172454 1.023122 1.862488 2.891475 3.137744 5.828537 60.42417 68.7716 68.90433 68.95691 68.98087 68.99084 68.99161 68.46481 67.86013 66.75687 64.70103 62.31389 59.66851 55.53907 53.867 53.09088 58.70676 62.59118 64.46173 64.47964 65.16062 65.51262 67.09608 70.10558 72.0136 73.82893 76.05894 77.98814 79.37251 80.40868 81.96946 82.06044 84.98624 86.10031 87.48634 88.03547 89.89491 90.97721 90.99549 90.25695 90.01251 89.13064 88.05865 87.19342 85.27814 85.01246 83.32684 81.29616 80.96399 80.50972 79.74509 77.16773 74.00595 73.27398 69.59039 64.71457 55.56959 46.8982 40.34265 36.13263 32.92945 27.6815 26.94038 20.52139 19.01364 18.27999 12.46537 9.002264 8.021131 6.035963 5.986872 5.325698 5.001714 5.000488 5.000188 5.000103 5.000093 5.000119 5.00016 5.000171 5.000136 5.00007 4.999932 4.99652 5.000185 5.009011 5.000252 5.000097 5.000191 5.000616 5.003572 5.737783 6.003148 6.916878 7.420017 9.487156 11.03377 13.05773 15.99409 18.1879 21.17525 23.52569 27.7487 30.61737 32.43289 34.77916 38.02486 39.43562 41.97132 42.76347 45.70365 47.72789 49.29497 51.98766 53.00974 54.5871 55.8579 57.95222 59.13364 60.91743 61.98026 63.01563 65.65702 67.05569 68.54092 70.60853 70.99703 71.00072 70.99986 70.99974 70.99919 70.99694 70.60893 70.00059 69.70577 69.00346 68.99845 68.75986 68.00488 68.00081 68.00022 67.99995 67.9995 67.99495 67.80464 67.33099 67.00284 67.00076 67.0004 67.00043 67.23663 67.00227 67.00002 66.99992 66.9998 66.99962 66.99944 66.99935 66.9995 66.99969 66.99973 66.99966 66.99934 66.99828 66.99751 66.99707 66.9985 66.99895 66.99928 66.99957 66.99979 67 67.00028 67.00098 67.00331 67.02074 67.50776 67.96849 67.98837 67.99215 67.99339 67.99683 67.99961 68.0004 68.00054 68.00066 68.00069 68.00029 67.9999 68.0005 68.00176 68.00316 68.00396 68.01479 68.00868 68.03444 68.93996 68.99702 68.99898 68.99976 69.00026 69.00077 69.00196 69.21477 69.99298 69.99919 69.99982 70.00037 70.00158
-6.894715 -6.892771 -6.890937 -6.889212 -6.887553 -6.881833 -6.864501 -6.847177 -6.830023 -6.813056 -6.796279 -6.779693 -6.763291 -6.746934 -6.730508 -6.714013 -6.697443 -6.680777 -6.663923 -6.641842 -6.573621 -6.492924 -6.412213 -6.331627 -6.251208 -6.171008 -6.091465 -6.043942 -6.010944 -5.978139 -5.945383 -5.912651 -5.879935 -5.847225 -5.814059 -5.780667 -5.747561 -5.714748 -5.682228 -5.65 -5.618065 -5.586475 -5.554956 -5.523223 -5.491277 -5.459119 -5.426762 -5.394253 -5.365745 -5.353414 -5.342796 -5.332687 -5.323056 -5.313886 -5.305136 -5.294193 -5.266722 -5.236204 -5.206267 -5.176947 -5.148226 -5.120008 -5.089631 -4.995982 -4.879662 -4.763514 -4.64776 -4.532443 -4.417565 -4.303059 -4.18345 -4.060482 -3.938165 -3.816538 -3.695595 -3.575281 -3.455231 -3.306269 -3.114054 -2.921577 -2.729418 -2.537652 -2.346348 -2.155751 -1.987562 -1.891875 -1.797485 -1.70285 -1.607854 -1.512413 -1.416258 -1.29879 -1.075643 -0.835187 -0.5939326 -0.3521283 -0.1098564 0.1327263 0.3712317 0.5600317 0.732915 0.9025391 1.050359 0.1594809 -0.4636141 0.07615324 0.3807523 0.5552917 1.033296 1.175088 1.11528 1.144976 1.035491 1.154642 1.68468 2.68286 4.256445 12.91701 63.93214 68.84785 68.9343 68.97185 68.98901 68.99373 68.99648 68.99499 68.25986 67.91526 66.93948 64.83434 62.6043 60.25851 55.67414 54.36311 54.08096 59.32161 63.73367 65.60847 67.00126 67.81927 67.93293 68.8929 70.96425 72.01897 73.96487 76.60565 77.73918 78.22918 79.73917 81.41366 82.05355 84.98521 85.98061 87.99957 88.96867 89.55181 91.00669 91.28171 91.9407 90.24722 89.11148 88.00796 87.55488 86.34314 85.02569 84.20435 82.93921 82.62862 81.84458 81.59248 78.54094 75.37892 73.47021 69.05509 64.66191 54.5637 46.75874 39.71082 35.14179 31.99002 28.87193 26.65745 21.22845 19.00404 18.05421 11.81057 7.988434 7.615055 6.014792 5.827126 5.006252 5.001748 5.000801 5.000448 5.0003 5.000289 5.000397 5.00058 5.000709 5.000576 5.000345 5.000197 4.999091 5.001698 5.198456 5.000665 5.000148 5.000267 5.000847 5.005108 5.740241 6.004714 6.916041 7.570979 9.016829 11.05882 13.78958 16.34455 18.37267 21.75222 24.45509 27.57356 29.79371 32.13164 35.04157 38.08939 39.43935 41.51694 43.06931 45.09382 47.67924 49.17727 51.49823 53.00513 54.60319 56.39312 57.82431 59.18789 60.77662 61.47748 63.0198 65.85369 67.12596 69.01188 70.31847 70.99751 71.1308 71.00828 71.00037 70.9994 70.9976 70.88424 70.00323 69.98642 69.01574 69.00018 68.98673 68.01891 68.00323 68.00053 68.00002 67.99938 67.99567 67.81828 67.47675 67.0085 67.0006 67.00026 67.00021 67.00076 67.00027 66.99993 66.99978 66.99949 66.99896 66.99808 66.99359 66.99566 66.99911 66.99966 66.99981 66.99982 66.99976 66.99973 66.99978 66.99987 66.99998 67.00011 67.00027 67.00049 67.00085 67.00163 67.0052 67.21105 67.98589 68.01053 68.2615 68.01319 68.0097 68.01407 68.01582 68.24183 68.01797 68.01075 68.01346 68.0126 68.01268 68.01208 68.17724 68.51151 68.89079 68.59737 68.93114 68.94963 68.99202 68.99792 68.99978 69.00052 69.00111 69.00181 69.00249 69.00539 69.13931 69.99629 69.9994 69.99999 70.00052 70.00159
-6.969806 -6.965162 -6.960627 -6.956196 -6.951817 -6.942624 -6.921218 -6.899811 -6.878573 -6.857522 -6.83666 -6.816 -6.796436 -6.780829 -6.765595 -6.7503 -6.734931 -6.719466 -6.703801 -6.681819 -6.610246 -6.526182 -6.4421 -6.358142 -6.274351 -6.190784 -6.10794 -6.060372 -6.027193 -5.994198 -5.961252 -5.928329 -5.895414 -5.862459 -5.8259 -5.7864 -5.747149 -5.708185 -5.669516 -5.631146 -5.593123 -5.559188 -5.532086 -5.504874 -5.477459 -5.449834 -5.422 -5.393974 -5.367212 -5.345928 -5.325441 -5.305436 -5.285901 -5.266821 -5.248147 -5.226561 -5.185596 -5.141332 -5.097643 -5.05457 -5.012098 -4.970128 -4.925214 -4.819575 -4.693359 -4.567337 -4.441712 -4.316522 -4.191767 -4.06733 -3.934483 -3.796467 -3.659076 -3.522373 -3.386353 -3.250966 -3.115857 -2.952943 -2.752157 -2.551196 -2.350567 -2.15034 -1.950589 -1.751626 -1.580732 -1.493198 -1.406613 -1.319805 -1.232658 -1.145077 -1.056769 -0.9461011 -0.7315974 -0.5019258 -0.271487 -0.04052155 0.1908773 0.4225406 0.650201 0.836751 1.009895 1.175961 1.256828 -0.384084 0.08857235 0.2549725 1.025295 1.007348 1.772604 2.011994 2.030875 2.094426 2.134962 2.745148 2.91082 5.036622 46.72332 69.59638 69.89269 69.5316 69.82715 69.96395 69.9678 69.29185 69.00282 68.99928 68.95631 67.99973 67.05825 65.21778 63.33116 60.67756 56.04977 55.02925 55.58629 59.56548 64.21922 66.92838 67.83875 69.37501 70.42672 71.53236 71.74672 72.30145 74.30095 76.58917 77.29002 78.67416 80.259 81.98 82.56432 85.00246 87.07731 88.54537 89.20913 90.40498 91.98377 91.99645 91.97783 90.23787 89.12173 88.07127 87.03109 86.47048 85.95077 84.96226 84.12498 83.85412 83.33502 82.487 80.37155 76.79536 73.49145 68.72937 63.69978 54.70379 47.81255 40.2558 35.16797 31.39083 28.72823 23.31756 21.28845 18.77142 17.04102 11.30561 8.004185 6.893804 6.004568 5.438983 5.004879 5.003069 5.002031 5.001245 5.000834 5.000869 5.001351 5.002821 5.007585 5.004408 5.001776 5.001676 5.006332 5.159354 5.016612 5.000486 5.000154 5.000281 5.000892 5.007322 5.970674 6.007896 6.929659 7.690608 9.053921 11.60575 15.10876 16.88673 18.46107 21.8914 24.23565 27.35326 29.7268 32.07383 35.52621 37.44464 39.40638 41.00832 43.42701 45.14468 47.87595 49.25829 51.376 53.92491 54.61132 56.6895 57.99136 59.23682 60.36192 61.96487 63.56066 65.64523 67.43765 69.05574 70.62496 71.00291 71.51759 71.23047 71.00078 70.99957 70.99803 70.794 70.0034 69.99681 69.31879 69.00145 68.99764 68.8474 68.01746 68.0009 68.00008 67.99934 67.99535 67.40607 67.00409 67.00099 67.00032 67.00014 67.00005 66.99999 66.99991 66.99976 66.99944 66.99831 66.99369 66.84982 66.46359 66.4813 66.99443 66.9995 66.99994 67.00017 67.00043 67.00082 67.00105 67.001 67.00095 67.00106 67.00133 67.00188 67.00514 67.03392 67.40237 68.04317 68.81361 68.9552 68.99498 68.98895 68.98694 68.98909 68.98869 68.99901 68.99905 68.99075 68.99449 68.98779 68.98474 68.98191 68.99653 68.99921 68.99968 68.99942 68.99982 69.00026 69.00072 69.00129 69.00278 69.03223 69.0107 69.06712 69.06825 69.23912 69.9947 69.99907 69.99979 70.00022 70.00078 70.00191
-7.039867 -7.033995 -7.028081 -7.021962 -7.015053 -7.00243 -6.977057 -6.951672 -6.926447 -6.901402 -6.87654 -6.851877 -6.829292 -6.814535 -6.80044 -6.786296 -6.772088 -6.757789 -6.743291 -6.72131 -6.646306 -6.558929 -6.47153 -6.384251 -6.297128 -6.210221 -6.124505 -6.076641 -6.043268 -6.010077 -5.976934 -5.943813 -5.910696 -5.877489 -5.837269 -5.791664 -5.746277 -5.701174 -5.656364 -5.611862 -5.567763 -5.531965 -5.509279 -5.486573 -5.463676 -5.440568 -5.417243 -5.393682 -5.368349 -5.337733 -5.30737 -5.277465 -5.248023 -5.219032 -5.190436 -5.158125 -5.103571 -5.045566 -4.988131 -4.931312 -4.875095 -4.819384 -4.760029 -4.642516 -4.506424 -4.370547 -4.23507 -4.100026 -3.965408 -3.831053 -3.684746 -3.531691 -3.379241 -3.227475 -3.07639 -2.925944 -2.775795 -2.599239 -2.389901 -2.18047 -1.971382 -1.762703 -1.554516 -1.347215 -1.174847 -1.094983 -1.016219 -0.9372565 -0.85795 -0.7782077 -0.6977392 -0.5939413 -0.3881775 -0.1693244 0.05025697 0.270317 0.4907414 0.7113341 0.9281444 1.11193 1.282662 1.430369 1.144306 0.2353408 0.1452117 0.6616181 1.014013 1.034781 1.875483 2.061551 3.032285 3.171447 4.18035 36.45677 43.08843 65.38244 69.75827 69.92698 69.96696 69.98031 69.98752 69.99275 69.9952 69.98888 69.62862 69.14951 68.99444 68.24203 67.15337 65.72165 63.73494 61.00016 56.94574 56.00204 56.19548 60.47913 64.90519 67.29343 68.58994 70.05696 71.05125 71.98684 73.13329 73.1686 75.87003 77.11318 78.12347 79.98452 80.70592 82.55103 83.54516 85.675 88.2534 89.17785 90.76742 91.64173 92.58466 92.38573 91.66895 90.77058 89.16527 88.08466 87.56818 86.92638 86.1284 85.5222 84.99303 84.60822 83.92718 82.49189 79.72508 75.97305 73.13403 67.88221 62.79829 56.26615 49.6809 41.20702 35.41449 31.54462 28.92294 21.87803 21.00437 20.42479 16.4852 10.81944 8.427249 6.078756 6.004381 5.917478 5.126672 5.415758 5.262262 5.016736 5.005208 5.006318 5.12941 5.391397 5.954067 5.62299 5.024189 5.422762 5.055722 5.095885 5.13991 5.000445 5.000174 5.000351 5.00113 5.008513 5.955883 6.198981 7.00175 7.980103 9.529792 11.31406 15.01927 17.06087 19.16459 21.47879 24.45781 26.87766 29.68662 31.50788 34.137 36.33696 39.11979 41.00168 42.79851 45.08326 47.27002 49.79789 51.36379 53.47035 54.30418 56.47161 57.886 59.77723 60.37496 62.00868 63.95579 65.69782 67.13565 68.92327 70.4296 71.75948 71.64751 71.00729 71.00035 70.99954 70.99781 70.78229 70.00346 69.99751 69.65201 69.00261 68.99917 68.994 68.09357 68.00168 68.00016 67.99914 67.99522 67.57997 67.00334 67.00058 67.00023 67.00008 66.99997 66.99986 66.99971 66.9994 66.99793 66.98502 66.12324 66.01191 66.00691 66.0101 66.98362 66.99935 67.00012 67.00076 67.00208 67.12569 67.18108 67.01572 67.00457 67.00439 67.00632 67.01316 67.62619 67.98941 68.03752 68.74043 68.99143 68.99757 68.99879 68.99918 68.99977 69.00536 69.06592 69.83266 69.92851 69.19055 69.02188 69.14822 69.33939 69.14101 69.12469 69.15992 69.01881 69.0171 69.02009 69.02129 69.02047 69.02094 69.59492 69.98712 69.97607 69.99143 69.99387 69.99521 69.99894 69.99971 70.00011 70.00066 70.00185 70.00668
-7.033299 -7.030624 -7.027767 -7.024718 -7.021398 -7.011688 -6.989219 -6.96638 -6.94334 -6.920115 -6.896711 -6.873134 -6.850571 -6.832766 -6.815707 -6.799046 -6.782773 -6.766866 -6.751212 -6.72793 -6.652644 -6.565886 -6.478832 -6.391613 -6.304146 -6.216197 -6.129821 -6.081819 -6.047882 -6.014228 -5.980729 -5.947359 -5.914097 -5.880813 -5.83749 -5.786981 -5.736616 -5.686477 -5.636578 -5.586935 -5.537689 -5.501 -5.482888 -5.465177 -5.447642 -5.429959 -5.411094 -5.391895 -5.367621 -5.327293 -5.287057 -5.247267 -5.207937 -5.16906 -5.130572 -5.087501 -5.01933 -4.94766 -4.876559 -4.806077 -4.736201 -4.666838 -4.593229 -4.464079 -4.31826 -4.172667 -4.027454 -3.882636 -3.738226 -3.594015 -3.434074 -3.266035 -3.098582 -2.931804 -2.765706 -2.600247 -2.435108 -2.245258 -2.027418 -1.80956 -1.592052 -1.374955 -1.158362 -0.9427609 -0.7696753 -0.6974951 -0.6265163 -0.5553529 -0.4838628 -0.4119476 -0.3393205 -0.2424716 -0.04555196 0.1624277 0.3710379 0.5800221 0.789228 0.9984142 1.203846 1.382416 1.535778 1.467731 -0.2837644 -0.02695695 0.2632716 1.010484 1.995314 2.039059 2.130797 3.136715 3.893001 25.49611 64.30094 70.7499 70.78369 70.53201 70.68962 70.95393 70.05286 70.00282 70.00015 70.00072 70.00018 69.99893 69.99618 69.43584 68.99716 68.24704 67.37397 65.94128 64.37097 62.10313 58.21352 56.79677 57.23376 61.56254 65.37213 67.96948 69.08157 70.90578 71.79327 72.88334 73.9842 74.34932 76.36962 78.38395 78.9883 80.15495 81.97832 83.32596 84.63464 86.65459 88.75725 89.81797 91.32302 92.94317 93.62099 92.98211 91.9329 90.91727 89.25329 88.69985 87.98479 87.00789 86.76831 85.99729 85.03112 84.97852 83.98103 81.70167 79.02988 75.67503 71.52593 66.88702 62.11252 56.79073 50.42592 41.91891 35.93547 31.95286 29.46928 22.11477 21.05989 20.24331 15.61221 11.34124 8.02665 6.9567 6.010488 5.99983 5.988403 5.8671 5.924333 5.862819 5.525398 5.979123 5.983183 5.973083 5.123152 5.322224 5.87084 5.008811 5.000679 5.001365 5.000595 5.000174 5.000169 5.000403 5.001408 5.020029 5.996999 6.744841 7.014744 8.012465 9.702299 11.68898 16.32969 17.04563 19.18783 21.67877 23.97476 26.58051 29.12235 31.28243 34.07088 36.27805 39.06747 40.83521 42.70798 44.84567 47.05167 49.74964 51.21912 52.69938 54.61342 56.08361 57.5676 59.45338 60.37748 62.16647 63.77542 65.65008 67.12793 68.91048 69.9798 71.29167 71.00028 71.00026 71.00003 70.99953 70.9976 70.61916 70.00217 69.99695 69.82482 69.00278 68.99942 68.99316 68.35809 68.24889 68.00022 67.99869 67.96601 67.01917 67.00156 67.0004 67.00017 67.00001 66.99985 66.99964 66.9993 66.99844 66.99197 66.02201 66.00359 66.00212 66.00382 66.41969 66.99702 66.99968 67.00061 67.00285 67.09982 67.76817 67.99422 67.99139 67.32523 67.31613 67.85837 68.07883 68.04831 68.0015 68.06895 68.88365 68.99651 68.99929 68.99996 69.00061 69.00323 69.36103 69.98266 69.99618 69.99739 69.99628 69.99548 69.99573 69.99603 69.99498 69.99509 69.99622 69.9955 69.99429 69.99323 69.99286 69.9933 69.99495 69.99773 69.99863 69.99872 69.99886 69.99911 69.99945 69.99981 70.00009 70.00057 70.00201 70.01037 70.69818
