ncols         467
nrows         31
xllcorner     384937.130607
yllcorner     6542629.77495
cellsize      20.000000
NODATA_value  -9999.000000
2.685	2.478	2.446	2.428	2.618	2.551	2.503	2.456	2.393	2.344	2.334	2.068	2.141	2.631	2.453	2.217	2.416	2.518	2.358	2.310	2.476	2.577	2.882	2.914	3.064	3.131	3.070	2.589	2.790	2.713	2.670	2.600	2.551	2.424	2.658	2.739	2.703	2.843	2.852	2.874	3.049	3.028	3.071	3.250	3.226	3.591	3.600	3.773	3.860	4.102	4.311	4.468	4.706	5.149	5.840	6.079	6.339	6.606	7.096	7.199	7.329	7.197	7.447	7.085	6.905	6.676	6.433	5.924	5.393	4.776	4.426	4.200	3.922	3.501	3.109	2.893	2.495	2.558	2.396	2.568	2.705	2.661	2.758	2.495	2.329	2.341	2.281	2.214	2.182	2.190	2.508	2.622	2.679	2.840	2.777	2.606	2.572	2.591	2.608	2.553	2.184	2.173	2.089	2.015	2.499	2.433	2.361	2.539	2.754	2.529	2.232	2.260	2.411	2.420	2.451	2.232	2.447	2.275	2.477	2.702	2.732	3.000	3.331	3.682	4.293	5.063	5.735	7.120	8.248	9.275	10.922	11.832	12.830	13.280	13.609	14.040	14.756	15.576	16.761	17.026	17.720	18.526	18.261	18.075	18.046	17.974	17.802	17.719	17.494	17.276	16.964	16.437	15.680	15.398	14.918	14.637	13.973	13.625	13.494	13.570	13.032	12.519	12.205	11.878	11.687	11.782	12.146	11.999	12.974	13.870	14.701	15.069	15.579	15.945	16.376	16.927	16.965	16.678	16.795	16.520	16.840	16.593	16.178	16.168	16.307	16.266	16.481	16.787	17.007	17.326	17.589	17.588	17.364	17.322	17.315	17.372	17.217	17.298	17.571	17.275	17.613	17.534	17.690	17.617	17.798	17.587	17.607	17.612	17.408	17.267	16.467	16.230	15.911	15.627	15.584	15.621	15.218	15.188	14.950	14.761	14.253	13.873	13.956	13.664	13.464	12.940	12.643	12.338	12.448	11.896	11.746	11.676	11.801	11.834	11.716	11.586	11.477	11.225	11.571	11.948	13.374	13.415	13.324	13.306	13.444	13.667	13.836	14.051	14.083	14.225	14.107	14.165	14.173	14.336	14.472	14.668	14.706	14.955	15.111	17.230	12.554	11.638	5.398	3.623	10.905	6.188	5.555	5.723	4.817	4.716	4.591	4.490	4.055	3.984	4.066	5.639	5.956	3.580	3.230	3.393	3.298	3.237	3.064	3.215	3.438	3.474	16.069	16.069	8.215	8.730	9.337	10.120	10.666	11.092	11.473	11.476	11.492	11.328	11.237	11.157	4.787	2.148	-3.258	-7.384	-9.318	-8.086	-7.704	-6.384	-5.905	-5.675	3.166	2.983	3.030	3.005	2.950	2.962	3.677	3.748	4.048	4.533	3.681	3.349	3.340	3.340	3.340	3.698	4.208	3.587	4.037	4.349	3.771	3.421	3.510	3.451	3.501	3.484	4.425	3.540	3.540	3.540	3.540	3.540	3.540	3.540	3.540	3.540	3.540	3.540	3.540	3.540	3.540	3.540	3.540	3.540	3.540	3.540	3.540	3.540	4.352	3.580	3.580	3.580	3.580	3.580	4.355	3.609	3.056	3.397	3.556	3.072	3.053	3.066	3.349	3.708	3.409	3.570	3.085	3.027	3.145	3.443	3.295	3.549	3.399	3.493	2.667	2.761	3.172	3.045	3.248	3.503	3.491	3.723	3.641	3.843	3.507	3.323	3.425	3.782	3.226	2.931	2.874	2.929	2.982	2.902	2.852	2.819	2.791	2.799	2.889	2.860	3.618	3.509	3.242	3.178	3.099	3.201	3.225	3.248	3.206	3.243	3.295	3.177	3.205	3.450	3.043	3.402	3.033	3.171	3.234	3.653	3.563	3.565	3.485	3.575	3.638	4.891	4.891	3.458	3.375	3.277	3.391	3.281	-6.346	-6.824	-7.490	-8.122	-7.482	-6.761	-6.325	-6.082	-5.431	2.048	2.048	3.017	3.056	2.956	2.985	3.147	3.201	3.232	3.070	3.192	3.044	2.866	3.038	2.905	3.128
2.476	2.509	2.532	2.498	2.483	2.569	2.545	2.330	2.210	2.234	2.040	2.103	2.677	2.497	2.331	2.380	2.319	2.530	2.563	2.536	2.312	2.642	2.815	2.763	2.981	2.834	2.749	2.777	2.558	2.714	2.575	2.635	2.438	2.668	2.342	2.467	2.615	2.668	2.619	2.759	2.965	3.105	3.187	3.100	3.281	3.283	3.564	3.884	4.091	4.219	4.408	4.677	4.837	5.157	5.214	5.726	6.490	6.576	6.833	6.912	6.948	7.293	7.278	7.152	6.690	6.617	6.639	6.606	6.061	5.456	4.965	4.627	4.329	4.049	3.622	2.932	2.736	2.119	2.036	2.893	2.850	2.824	2.711	2.557	2.393	2.338	2.279	2.307	2.364	2.470	2.445	2.552	2.601	2.875	3.103	3.072	3.077	2.779	2.889	2.995	2.806	2.506	2.245	2.385	2.397	2.266	2.361	2.343	2.442	2.937	2.530	2.389	2.563	2.464	2.532	2.485	2.247	2.477	2.285	2.538	2.759	2.828	3.138	3.703	4.263	4.528	4.988	6.953	7.457	8.754	9.769	10.641	11.463	12.905	13.678	14.177	14.599	15.407	16.224	16.919	17.379	17.955	18.413	18.068	17.948	17.919	17.808	17.618	17.567	17.360	16.896	16.204	15.680	15.306	14.898	14.463	14.148	13.566	13.020	12.934	12.888	12.461	11.893	11.990	11.891	11.998	11.713	12.088	13.122	14.013	14.623	15.249	15.736	16.110	16.792	17.192	17.135	17.189	17.175	17.365	16.960	16.857	16.639	16.591	16.708	16.805	16.837	17.133	17.411	17.799	18.003	17.882	17.796	17.815	17.545	17.743	17.530	17.540	17.386	17.409	17.835	17.943	17.899	17.948	17.823	17.738	17.637	17.652	17.035	16.547	16.466	16.154	15.716	15.446	15.498	15.249	15.151	14.976	14.721	14.221	13.659	13.368	13.175	13.103	12.762	12.697	12.418	12.321	11.905	12.005	11.768	12.207	12.314	12.392	12.260	12.136	12.145	11.966	12.105	12.369	13.641	13.832	14.154	14.489	14.330	14.315	14.463	14.507	14.778	14.758	14.482	14.490	14.595	14.765	14.839	14.880	14.870	14.905	15.181	15.091	16.916	13.198	13.063	11.917	10.703	7.568	6.949	5.024	4.670	4.828	4.697	4.309	4.082	4.098	4.048	7.317	4.631	3.041	3.314	3.384	3.495	3.245	3.190	3.323	3.409	16.069	16.069	8.201	8.474	8.899	9.660	10.420	10.938	11.422	11.707	11.789	11.718	11.533	11.315	11.071	10.906	8.720	0.743	-2.089	-5.458	-7.216	-7.513	-5.852	-5.933	-5.798	-5.693	3.056	2.942	2.926	3.031	3.268	3.697	2.932	2.958	4.533	4.379	3.811	3.954	4.026	3.985	3.784	3.271	4.178	4.538	3.460	3.430	3.430	4.176	3.820	3.606	3.553	4.044	3.540	3.540	3.540	3.540	3.540	3.540	3.540	3.540	3.540	3.540	3.540	3.540	3.540	3.540	3.540	3.540	3.540	3.540	3.540	3.540	3.992	3.598	3.580	3.580	3.580	3.580	3.580	3.580	4.484	2.952	3.113	3.174	3.005	3.044	3.076	3.095	3.121	3.604	3.403	3.814	3.372	3.282	3.705	3.325	3.366	3.372	3.452	3.378	3.282	3.288	3.304	3.062	3.499	3.350	3.328	3.203	3.211	3.688	3.222	3.256	3.722	3.229	2.961	2.848	2.873	2.959	2.813	2.750	2.759	2.768	2.725	2.825	2.885	3.594	3.553	3.482	3.163	3.229	3.060	3.076	3.116	3.128	3.207	3.294	3.293	3.281	3.182	2.859	3.569	3.323	3.514	3.306	3.127	3.345	3.251	3.250	3.733	4.891	4.891	3.423	3.376	3.542	3.360	3.365	-5.434	-6.934	-8.470	-8.644	-9.669	-7.850	-6.562	-5.940	-5.207	-0.014	2.738	2.979	2.997	2.982	3.054	3.018	3.081	3.481	3.955	3.122	3.071	2.934	2.952	2.958	2.943	2.936
2.565	2.569	2.526	2.454	2.487	2.537	2.483	2.298	2.194	2.005	2.094	2.705	2.580	2.294	2.218	2.484	2.433	2.464	2.636	2.421	2.259	2.499	2.646	2.771	2.852	2.838	2.517	2.512	2.684	2.461	2.388	2.401	2.462	2.520	2.663	2.755	2.836	2.631	2.584	2.582	2.809	3.138	3.108	3.084	3.300	3.525	3.880	4.042	4.159	4.532	4.711	4.891	5.078	5.334	5.364	5.722	6.101	6.747	6.720	6.891	7.045	7.195	7.348	7.180	7.207	6.983	6.940	6.670	6.237	6.128	5.613	5.159	4.572	4.449	4.222	3.663	2.851	2.592	3.139	3.476	3.241	2.977	2.780	2.648	2.623	2.400	2.331	2.371	2.476	2.356	2.196	2.375	2.494	2.436	3.015	3.155	3.542	3.406	3.317	3.132	3.223	2.828	2.569	2.435	2.296	2.268	2.224	2.264	2.221	2.316	2.834	2.612	2.394	2.533	2.316	2.527	2.537	2.307	2.500	2.402	2.501	2.697	3.178	3.665	3.992	4.228	4.528	5.335	6.708	7.598	8.441	9.170	10.015	11.343	12.796	13.973	14.280	14.760	15.582	16.656	17.171	17.726	18.250	18.111	18.032	17.922	17.750	17.703	17.485	17.151	16.851	16.230	15.797	15.249	14.753	14.456	14.100	13.613	13.099	12.616	12.515	12.455	12.048	11.663	12.244	12.003	11.669	11.991	12.965	13.932	14.673	15.285	15.837	16.367	16.616	16.927	17.705	17.709	18.048	17.488	17.368	17.337	17.257	17.695	17.164	17.233	17.406	17.576	17.996	18.204	18.279	18.297	18.274	18.133	18.045	17.918	17.937	17.927	17.655	17.386	17.369	17.768	17.968	17.961	17.820	17.693	17.556	17.268	16.671	16.148	15.858	15.953	15.485	15.243	15.213	14.956	14.714	14.598	14.316	13.665	13.239	13.050	13.070	12.723	12.663	12.515	12.495	12.110	11.993	11.885	12.124	12.477	12.831	12.881	12.981	12.763	12.740	12.686	12.786	12.906	13.937	14.303	14.754	14.934	15.282	15.424	14.891	15.040	15.280	15.007	14.970	14.979	15.053	15.056	15.199	15.178	15.064	15.045	15.039	15.233	15.034	14.975	13.607	11.909	11.106	9.276	12.154	9.335	5.004	4.508	4.633	4.351	4.117	3.800	3.755	8.628	3.471	3.256	3.119	3.066	3.250	3.136	3.211	3.181	3.338	16.069	8.550	8.754	9.118	9.550	10.065	10.636	11.330	11.849	11.996	12.160	12.154	11.801	11.373	11.045	10.988	10.862	10.702	-0.428	-5.615	-6.488	-6.659	-6.287	-6.309	-4.989	-5.741	-5.850	2.866	2.944	3.053	3.441	3.861	2.941	2.940	2.940	4.379	4.379	4.379	4.379	3.346	3.802	3.842	4.517	3.919	3.430	3.430	3.430	3.430	3.430	3.718	4.256	4.175	4.197	3.540	3.540	3.540	3.540	3.540	3.540	3.540	3.540	3.540	3.540	3.540	3.540	3.540	3.540	3.540	3.540	3.540	3.540	3.540	4.400	3.580	3.580	3.580	3.580	3.580	3.580	3.580	4.374	3.287	3.291	3.133	2.994	3.067	3.117	3.043	3.045	3.530	3.286	3.166	3.219	3.098	3.181	3.233	3.273	3.680	3.381	3.344	3.397	3.091	3.099	3.287	3.074	3.050	3.066	3.070	3.382	3.375	3.864	3.680	3.716	3.157	2.908	2.824	2.895	2.979	2.800	2.799	2.741	2.685	2.781	2.928	3.277	3.501	3.619	3.402	3.352	3.470	3.234	3.066	3.031	3.104	3.524	3.186	3.249	3.216	3.538	2.861	3.658	3.386	3.387	3.197	3.207	3.063	3.221	3.847	4.891	4.891	3.270	3.430	3.255	3.335	3.443	-4.796	-6.740	-8.243	-9.466	-8.918	-8.287	-6.939	-5.754	-4.996	-4.325	2.738	2.738	2.738	2.956	3.007	3.048	3.123	3.176	3.510	3.152	3.097	3.061	3.031	3.014	2.913	2.963	2.955
2.526	2.512	2.488	2.530	2.472	2.517	2.350	2.231	2.252	2.220	2.320	2.434	2.469	2.469	2.462	2.724	2.474	2.564	2.476	2.268	2.533	2.470	2.480	2.620	2.562	2.511	2.464	2.308	2.693	2.611	2.552	2.485	2.556	2.536	2.558	2.728	2.760	2.739	2.631	2.702	3.120	3.161	3.193	3.468	3.594	3.597	4.023	4.086	4.421	4.483	4.834	4.954	5.221	5.472	5.752	5.836	6.129	6.301	6.725	7.073	7.229	7.384	7.390	7.314	7.276	7.233	7.086	6.696	6.281	6.035	6.018	5.560	5.164	4.520	4.225	3.765	3.135	3.813	4.176	3.597	3.735	3.361	3.036	2.760	2.671	2.619	2.349	2.441	2.329	2.306	2.254	2.215	2.212	2.448	2.645	3.229	3.421	3.466	3.727	3.631	3.453	3.071	2.551	2.611	2.466	2.277	2.215	2.228	2.304	2.317	2.300	2.661	2.371	2.534	2.397	2.409	2.485	2.473	2.285	2.523	2.256	2.379	2.753	3.239	3.478	3.655	3.877	4.822	5.692	6.511	7.183	7.815	8.934	9.968	11.275	12.892	13.630	14.173	15.002	16.057	16.997	17.178	17.476	18.384	18.102	17.853	17.814	17.608	17.268	17.085	16.989	16.324	15.963	15.500	14.787	14.352	14.013	13.800	13.059	12.710	12.475	12.515	12.392	12.032	12.093	12.178	12.365	11.932	12.565	13.538	14.544	15.278	16.045	16.418	16.583	16.962	17.406	18.356	18.221	18.105	17.883	17.747	17.994	17.795	17.778	17.616	17.636	17.964	18.550	18.600	18.622	18.632	18.691	18.437	18.471	18.287	18.222	17.963	17.902	17.740	17.562	17.571	17.801	17.572	17.746	17.688	17.433	16.784	16.811	16.250	16.040	15.625	15.604	15.163	14.774	14.393	14.164	14.253	14.085	13.468	13.466	13.180	13.031	12.980	12.633	12.672	12.348	12.276	12.098	12.106	12.389	12.840	13.241	13.313	13.499	13.386	13.240	13.291	13.428	13.408	14.189	14.770	15.068	15.329	15.675	15.831	16.182	15.776	15.478	15.361	15.417	15.460	15.381	15.456	15.349	15.362	15.233	15.233	15.085	14.961	15.138	14.896	14.144	14.270	11.047	12.588	11.612	11.671	7.718	4.489	4.341	4.099	3.576	3.607	5.214	7.836	3.151	3.164	3.188	2.798	3.160	3.110	3.202	3.297	16.069	16.069	8.690	9.166	9.684	9.936	10.522	11.312	11.700	12.102	12.567	12.802	12.524	12.071	11.649	11.389	11.129	10.989	10.910	10.866	-2.999	-5.277	-9.139	-7.654	-6.903	-6.010	-6.157	-5.740	-5.833	3.061	2.939	3.133	3.228	3.170	2.995	3.165	2.940	4.379	4.379	4.379	4.379	4.379	4.312	4.315	3.430	3.430	3.430	3.430	3.430	3.430	3.430	3.430	3.430	3.974	4.509	3.651	3.540	3.540	3.540	3.540	3.540	3.540	3.540	3.540	3.540	3.540	3.540	3.540	3.540	3.540	3.540	3.540	4.273	3.584	3.580	3.580	3.580	3.580	3.580	3.580	3.580	4.315	3.366	3.489	3.150	3.078	3.092	3.126	3.089	3.100	3.184	3.410	3.384	3.147	3.905	3.408	3.515	3.211	3.244	3.101	3.505	3.471	2.991	3.022	3.351	3.117	3.049	3.083	3.035	3.068	2.975	3.590	3.732	3.765	3.229	2.889	2.783	2.921	2.699	2.786	2.753	2.831	2.835	2.871	3.126	3.694	3.541	3.640	3.376	3.407	3.595	3.062	3.025	3.190	3.098	3.740	3.541	3.510	3.432	3.575	3.038	3.568	3.453	3.431	3.300	3.292	3.424	3.776	4.987	4.987	3.378	3.546	3.315	3.301	3.613	3.042	-5.587	-8.074	-8.570	-8.722	-8.449	-8.517	-6.047	-5.528	-2.213	2.738	2.738	2.738	2.738	3.088	2.778	2.963	2.916	3.233	3.585	3.118	3.084	2.984	3.005	2.995	2.946	2.920	2.977
2.626	2.662	2.466	2.540	2.489	2.428	2.287	2.140	2.376	2.433	2.488	2.252	2.363	2.399	2.459	2.692	2.736	2.724	2.401	2.554	2.643	2.488	2.446	2.590	2.541	2.537	2.385	2.124	2.730	2.530	2.516	2.461	2.417	2.418	2.399	2.782	2.917	3.081	2.835	3.251	3.185	3.625	3.573	3.669	3.554	3.892	4.082	4.458	4.525	4.828	4.906	5.289	5.478	5.846	5.970	6.064	6.210	6.383	6.570	6.797	7.256	7.596	7.689	7.317	7.464	7.286	7.148	6.802	6.542	6.356	5.857	5.707	5.679	5.072	4.593	4.169	4.243	4.358	4.365	4.153	4.065	3.837	3.550	2.939	2.767	2.571	2.570	2.283	2.336	2.284	2.249	2.172	2.356	2.552	2.523	2.581	3.080	3.454	3.727	3.610	3.700	3.598	3.137	2.762	2.573	2.440	2.249	2.238	2.315	2.287	2.277	2.305	2.714	2.482	2.518	2.335	2.384	2.435	2.372	2.159	2.209	2.233	2.491	2.747	3.163	3.362	3.563	4.231	4.850	5.530	6.314	6.945	7.795	8.981	10.002	11.269	12.775	13.889	14.670	15.526	16.361	16.676	17.087	17.458	18.624	18.050	17.783	17.580	17.459	17.001	16.902	16.605	15.955	15.604	15.013	14.382	13.871	13.651	13.220	12.786	12.702	12.646	12.373	12.178	12.058	12.291	12.587	12.612	12.448	13.177	14.161	15.089	16.011	16.223	16.795	17.306	17.523	18.011	18.703	18.723	18.528	18.378	18.527	18.408	18.225	18.116	18.166	18.425	18.718	18.926	19.092	18.855	18.797	18.681	18.697	18.684	18.320	18.212	17.989	17.852	17.746	17.691	17.428	17.534	17.383	17.410	17.193	16.833	16.628	16.371	15.859	15.667	15.226	15.025	14.600	14.219	13.874	14.089	13.627	13.535	13.459	13.335	13.265	12.954	12.929	12.745	12.524	12.265	12.315	12.268	12.682	13.178	13.552	13.666	13.837	13.821	13.803	13.779	13.844	13.979	14.756	15.260	15.433	15.764	15.959	16.312	16.609	17.115	16.305	15.896	15.835	15.833	15.843	15.804	15.531	15.406	15.452	15.237	15.059	14.843	14.864	14.804	14.575	13.851	14.074	12.360	11.876	11.815	10.961	6.527	4.439	4.276	4.188	4.155	9.025	5.449	3.097	3.214	3.127	3.554	3.299	2.948	3.276	3.321	16.069	8.507	9.160	9.741	10.028	10.421	11.007	11.630	12.170	12.519	12.858	13.092	12.768	12.492	12.029	11.702	11.254	11.200	11.018	10.990	11.092	0.831	-5.374	-6.443	-9.741	-7.166	-6.563	-6.158	-6.085	-5.851	2.794	2.940	0.811	3.298	3.606	3.679	3.270	3.179	3.109	1.380	1.660	4.379	4.379	3.453	3.430	3.430	3.430	3.430	3.430	3.430	3.430	3.430	3.430	3.430	3.430	3.535	4.285	4.146	3.693	3.540	3.540	3.540	3.540	3.540	3.540	3.540	3.540	3.540	3.540	3.540	3.540	3.894	3.620	3.580	3.580	3.580	3.580	3.580	3.580	3.580	3.666	3.164	3.158	3.554	3.201	3.088	3.063	3.028	3.073	3.327	3.164	3.096	3.109	3.151	3.825	3.416	3.615	3.247	3.284	3.202	3.149	3.106	3.017	3.101	3.275	3.115	3.056	3.050	2.997	2.996	3.218	3.333	3.799	3.668	3.387	2.957	2.816	2.980	2.763	2.800	2.788	2.798	2.953	3.162	3.426	3.605	3.648	3.829	3.640	3.307	3.201	3.029	3.210	3.463	3.095	3.345	3.238	3.453	3.149	3.253	3.018	3.523	3.496	3.395	3.178	3.631	3.583	4.987	4.987	3.408	3.419	3.411	3.344	3.669	2.995	-6.069	-6.386	-7.833	-8.487	-9.432	-8.000	-6.741	-4.501	-1.490	2.738	2.738	2.738	2.864	3.099	3.773	3.086	3.010	3.182	3.630	3.062	3.114	3.087	3.089	3.001	3.081	3.048	3.086	2.998
2.591	2.605	2.539	2.388	2.426	2.381	2.304	2.505	2.373	2.394	2.347	2.281	2.173	2.382	2.507	2.468	2.729	2.587	2.400	2.705	2.734	2.401	2.498	2.499	2.492	2.328	2.434	2.131	2.539	2.450	2.412	2.350	2.265	2.472	2.986	3.133	3.193	3.378	3.222	3.322	3.787	4.005	3.865	3.976	3.882	3.998	4.189	4.788	4.800	4.944	5.373	5.488	5.779	5.960	6.237	6.376	6.500	6.553	6.656	6.789	7.127	7.192	7.379	7.335	7.718	7.687	7.332	6.890	6.788	6.353	6.223	5.910	5.722	5.167	4.937	4.733	4.789	4.813	4.580	4.496	4.567	4.163	3.855	3.367	2.840	2.705	2.653	2.415	2.354	2.190	2.265	2.273	2.225	2.286	2.590	2.645	2.597	2.939	3.416	3.560	3.635	3.698	3.161	2.898	2.773	2.369	2.434	2.340	2.261	2.354	2.211	2.308	2.316	2.576	2.501	2.585	2.234	2.442	2.305	2.199	2.156	2.233	2.266	2.342	3.009	2.891	3.235	3.656	4.220	4.882	5.643	6.022	6.884	7.932	8.860	10.316	12.196	13.777	14.339	15.165	15.663	15.923	16.799	16.982	17.648	18.367	17.977	17.778	17.488	17.108	16.781	16.714	16.219	15.663	15.220	14.586	14.069	13.442	13.222	13.107	12.845	12.583	12.071	12.096	12.064	12.342	12.297	12.828	12.947	13.020	14.051	15.115	15.679	16.193	16.778	17.304	17.721	18.023	18.711	18.806	19.020	18.833	18.811	18.819	18.735	18.612	18.632	18.793	18.966	19.198	19.212	19.338	19.047	18.979	18.893	18.741	18.468	18.371	18.216	18.005	17.749	17.594	17.460	17.293	17.216	17.012	16.891	16.726	16.464	16.069	15.827	15.448	14.959	14.665	14.442	14.250	14.318	13.759	13.575	13.414	13.350	13.511	13.537	13.441	13.106	12.853	12.795	12.640	12.418	12.533	12.907	13.343	13.754	14.030	14.166	14.121	14.345	14.446	14.561	14.321	15.434	15.564	15.890	16.087	16.307	16.504	17.015	17.254	17.483	17.209	16.110	16.174	16.051	16.143	15.934	15.747	15.486	15.205	15.002	15.017	15.160	14.555	14.222	13.935	13.646	13.030	12.142	11.529	10.898	9.950	4.695	4.427	4.472	4.498	4.310	3.473	3.189	3.148	3.372	3.281	3.134	3.320	3.216	3.515	16.069	8.742	9.413	10.128	10.500	10.847	11.292	11.747	12.234	12.754	12.964	12.931	12.863	12.823	12.212	11.860	11.582	11.294	11.220	11.256	11.135	11.222	2.260	-1.635	-5.991	-6.554	-8.228	-6.910	-6.528	-6.218	-5.740	-5.820	2.954	3.190	3.765	2.956	3.397	2.794	1.494	1.320	1.398	2.341	4.379	4.003	3.430	3.430	3.430	3.430	3.430	3.430	3.430	3.430	3.430	3.430	3.430	3.430	3.430	3.430	3.430	3.914	4.370	4.184	3.784	3.540	3.540	3.540	3.540	3.540	3.540	3.636	4.395	3.601	3.580	3.580	3.580	3.580	3.580	3.580	3.580	3.580	4.265	3.002	3.224	3.211	3.022	3.205	3.079	3.031	3.124	3.655	3.180	3.138	3.200	3.163	3.672	3.261	3.195	3.202	3.523	2.990	3.106	3.554	3.255	3.031	3.283	3.002	2.927	3.162	3.413	3.389	3.515	3.187	3.893	3.708	4.055	3.291	3.007	2.930	2.953	2.936	2.974	3.193	3.260	3.233	3.310	3.594	3.702	3.631	3.422	3.176	3.324	3.359	3.589	3.352	3.227	3.116	3.455	3.313	3.595	3.480	3.063	3.350	3.221	3.501	3.757	4.987	4.987	4.987	3.284	3.445	3.278	3.345	3.736	3.370	-6.133	-6.851	-7.729	-8.812	-8.510	-8.139	-6.630	-5.664	-2.735	2.738	2.738	3.175	3.068	3.074	2.941	3.034	3.680	3.284	3.382	3.077	3.288	3.068	3.135	3.172	3.159	3.000	2.985	3.112	3.024
2.582	2.583	2.464	2.562	2.350	2.216	2.593	2.415	2.340	2.365	2.403	2.280	2.466	2.422	2.541	2.667	2.632	2.437	2.512	2.557	2.433	2.454	2.475	2.342	2.453	2.412	2.360	2.564	2.426	2.395	2.353	2.250	2.395	2.890	3.423	3.333	3.543	3.379	3.689	3.707	3.906	4.162	4.043	4.240	4.386	4.303	4.418	4.708	4.950	5.340	5.431	5.693	6.007	6.140	6.451	6.617	6.732	6.715	6.857	6.902	6.946	7.258	7.384	7.360	7.350	7.237	7.439	7.101	7.108	6.680	6.401	6.302	5.869	5.241	4.995	5.055	5.133	5.074	5.010	5.006	4.836	4.332	3.898	3.833	3.356	2.788	2.605	2.469	2.373	2.242	2.228	2.301	2.202	2.187	2.291	2.577	2.667	2.792	2.800	3.146	3.635	3.423	3.281	2.794	2.766	2.701	2.526	2.436	2.231	2.266	2.256	2.330	2.375	2.348	2.493	2.575	2.485	2.223	2.428	2.280	2.234	2.265	2.171	2.224	2.448	2.823	2.971	3.601	4.037	4.623	4.929	5.430	6.151	7.107	8.259	9.593	11.821	13.350	14.178	14.488	15.113	15.467	15.774	16.717	17.145	18.102	17.950	17.638	17.507	17.220	16.931	16.763	16.429	15.781	15.208	14.716	14.297	13.552	13.169	12.986	12.386	12.430	12.417	12.386	12.341	12.567	12.600	12.619	13.210	13.578	14.628	14.825	15.299	16.037	16.762	17.282	17.787	18.293	18.838	19.188	19.189	19.426	19.212	19.124	19.165	19.284	19.230	19.248	19.366	19.523	19.765	19.714	19.509	19.235	18.907	18.801	18.649	18.624	18.406	18.076	17.895	17.628	17.466	17.179	16.934	16.787	16.260	16.124	16.271	15.684	15.657	15.413	14.902	14.502	14.173	14.267	13.740	13.602	13.571	13.463	13.575	13.666	13.671	13.353	13.335	12.993	12.866	12.903	12.678	12.734	13.103	13.519	14.026	14.413	14.471	14.593	14.683	14.983	15.029	14.866	15.951	16.108	16.284	16.440	16.587	16.892	17.274	17.290	17.238	17.609	17.438	16.332	16.279	16.063	16.029	15.752	15.426	15.182	15.098	15.335	15.054	14.721	13.947	13.747	13.509	13.276	12.689	11.624	10.560	10.145	9.048	4.401	4.883	4.728	4.081	3.457	3.212	2.807	3.294	3.165	3.230	3.263	2.856	6.670	16.069	9.108	10.085	10.481	10.810	11.135	11.552	12.016	12.364	12.751	12.901	13.034	13.085	12.877	12.497	12.138	11.785	11.464	11.485	11.379	11.321	11.117	10.844	2.459	-0.706	-2.875	-6.223	-6.725	-7.100	-6.711	-6.175	-5.838	2.897	2.977	2.940	2.940	3.658	-0.128	1.164	1.491	1.927	2.936	4.379	4.379	4.379	3.443	3.430	3.430	3.430	3.430	3.430	3.430	3.430	3.430	3.430	3.430	3.430	3.430	3.430	3.430	3.430	3.430	3.763	4.537	4.573	4.308	4.239	4.281	4.117	3.595	3.580	3.580	3.580	3.580	3.580	3.580	3.580	3.580	3.580	4.100	3.024	3.090	3.276	3.424	3.125	3.107	3.172	3.219	3.328	3.654	3.144	3.320	3.399	3.382	3.833	3.015	3.010	3.178	3.506	3.013	3.086	3.355	3.228	3.631	3.332	3.269	3.537	3.289	3.257	3.332	3.352	3.266	3.730	3.745	3.438	3.117	3.118	3.258	3.256	3.403	3.278	3.116	3.307	3.412	3.514	3.789	3.752	3.468	3.174	3.047	3.055	3.078	3.230	3.081	3.076	3.105	3.387	3.461	3.397	3.517	3.147	3.612	4.022	4.987	4.987	4.987	3.278	3.209	3.344	3.367	3.219	3.696	3.260	-6.884	-8.187	-8.517	-8.953	-8.188	-6.875	-5.059	-3.976	-3.513	2.738	2.738	2.984	2.991	3.050	3.130	3.062	3.263	3.328	3.248	3.100	3.016	3.164	3.184	3.150	3.168	3.104	3.108	3.101	3.228	3.056
2.482	2.531	2.466	2.419	2.317	2.731	2.585	2.505	2.486	2.570	2.424	2.438	2.389	2.406	2.464	2.418	2.501	2.683	2.531	2.577	2.585	2.481	2.393	2.537	2.503	2.372	2.356	2.252	2.252	2.305	2.398	2.498	3.078	3.148	3.313	3.703	3.917	3.667	3.780	4.134	4.131	4.218	4.566	4.693	4.592	4.561	4.756	4.785	5.350	5.524	5.630	5.986	6.206	6.505	6.643	6.847	6.848	7.005	6.935	7.087	7.160	7.297	7.237	7.385	7.396	7.320	7.078	7.126	7.222	6.865	6.759	6.483	6.153	5.718	5.143	5.475	5.000	5.347	5.596	5.385	5.112	4.553	4.189	4.075	3.827	3.266	2.691	2.538	2.498	2.320	2.268	2.233	2.250	2.281	2.217	2.300	2.338	2.493	2.635	2.763	2.889	3.287	3.155	2.906	2.683	2.593	2.776	2.670	2.494	2.395	2.250	2.293	2.311	2.417	2.306	2.530	2.578	2.481	2.290	2.438	2.169	2.286	2.268	2.275	2.296	2.591	2.569	2.692	3.502	4.170	4.501	4.965	5.687	6.360	7.737	9.420	11.322	13.481	13.760	14.315	14.598	14.945	15.291	16.009	16.932	17.699	18.336	17.828	17.546	17.437	17.121	16.792	16.636	16.015	15.325	14.729	14.358	13.791	13.300	13.349	12.836	12.284	12.576	12.495	12.322	12.555	12.961	13.254	13.512	14.366	14.105	14.218	15.010	15.960	16.632	17.336	17.951	18.639	18.814	19.077	19.415	19.787	19.899	19.908	19.907	19.719	20.076	20.110	19.957	19.952	19.944	20.108	19.970	19.551	19.181	18.972	18.757	18.634	18.414	18.210	17.884	17.633	17.441	17.128	16.864	16.632	16.202	15.803	15.597	15.717	15.357	15.092	14.725	14.445	14.469	13.965	13.996	13.755	13.749	13.791	13.894	13.987	13.799	13.557	13.379	13.187	13.042	13.209	12.881	12.856	13.176	13.714	14.315	14.656	14.797	14.919	15.036	15.356	15.409	15.286	16.352	16.366	16.740	16.699	17.095	17.282	17.441	17.515	17.661	17.592	17.596	17.454	16.636	16.226	16.029	15.740	15.382	15.055	15.615	15.142	14.842	14.187	14.046	13.352	13.341	13.059	12.435	11.610	10.661	10.088	9.412	7.125	4.396	4.821	3.744	3.349	3.393	3.250	3.166	3.214	3.112	3.380	3.769	7.813	16.069	9.848	10.431	11.055	11.202	11.451	11.741	12.155	12.620	12.864	12.972	13.024	13.024	12.985	12.696	12.312	11.950	11.839	11.673	11.642	11.517	11.202	11.005	10.764	1.969	1.608	-3.720	-6.095	-7.057	-6.973	-6.905	-6.226	-5.794	3.067	3.174	3.497	-4.351	-4.631	-2.170	2.960	2.792	2.844	3.132	3.426	4.379	4.379	4.149	3.446	3.430	3.430	3.430	3.430	3.430	3.430	3.430	3.430	3.430	3.430	3.430	3.430	3.430	3.430	3.430	3.903	4.386	3.580	3.580	3.580	3.580	3.580	3.580	3.580	3.580	3.580	3.580	3.580	3.580	3.580	3.580	3.657	3.025	3.001	2.984	2.999	2.951	2.945	3.251	3.055	3.094	3.321	3.155	3.170	3.633	3.716	3.233	3.060	3.308	3.127	3.823	3.212	3.125	3.690	3.294	3.301	3.206	3.213	3.439	3.379	3.174	3.533	3.248	3.324	3.743	3.600	3.428	3.260	3.271	3.293	3.224	3.194	3.110	3.149	3.539	3.197	3.283	3.436	3.670	3.554	3.209	2.987	2.987	3.150	3.193	3.058	3.208	3.157	3.401	3.322	3.478	3.709	3.323	4.987	4.987	4.987	3.330	3.419	3.329	3.321	3.297	3.176	3.607	3.246	-6.659	-8.379	-9.441	-8.807	-8.561	-6.250	-4.938	-3.844	-2.218	2.738	2.738	2.897	2.939	3.118	3.056	2.989	3.330	3.368	3.378	2.769	3.143	3.186	3.111	3.293	3.209	3.108	3.098	3.079	3.054	3.172	3.180
2.501	2.445	2.394	2.418	2.558	2.545	2.543	2.574	2.530	2.458	2.455	2.440	2.630	2.472	2.412	2.393	2.432	2.618	2.513	2.498	2.641	2.502	2.544	2.687	2.536	2.426	2.692	2.379	2.492	2.657	2.815	3.224	3.109	3.253	3.362	3.702	4.020	4.056	4.120	4.229	4.333	4.490	4.676	4.781	4.819	4.882	4.928	5.106	5.231	5.650	5.980	6.145	6.327	6.622	6.833	6.977	7.052	7.215	7.278	7.275	7.418	7.378	7.346	7.378	7.407	7.184	7.040	7.002	6.973	6.906	7.024	6.530	6.182	5.471	5.730	5.197	5.500	5.209	5.588	5.636	5.406	5.035	4.773	4.589	4.332	3.760	3.254	2.622	2.426	2.309	2.291	2.272	2.333	2.404	2.284	2.225	2.250	2.309	2.461	2.385	2.498	2.825	2.937	2.870	2.695	2.736	2.575	2.727	2.674	2.504	2.416	2.424	2.319	2.436	2.450	2.831	2.287	2.707	2.528	2.240	2.410	2.295	2.445	2.270	2.430	2.502	2.404	2.362	2.661	3.108	4.268	4.519	5.041	5.902	7.312	8.876	10.649	12.781	13.535	13.773	14.032	14.248	14.790	15.350	16.264	17.167	17.912	17.772	17.646	17.457	17.113	16.763	16.622	16.483	15.552	14.911	14.210	14.187	14.035	13.570	13.200	13.032	12.298	12.634	12.599	12.836	13.100	13.680	14.434	14.009	13.925	14.087	14.588	15.568	16.457	17.255	17.924	18.396	18.985	19.186	19.532	20.157	20.341	20.324	20.541	20.205	20.854	20.739	20.564	20.328	20.164	20.152	20.144	19.805	19.380	19.151	18.998	18.670	18.416	18.263	17.874	17.708	17.466	17.194	16.753	16.519	16.259	15.753	15.238	15.389	15.128	14.799	14.726	14.382	14.216	14.017	14.095	14.131	14.184	14.220	14.235	14.094	14.035	13.809	13.509	13.338	13.460	13.329	13.275	13.114	13.436	13.953	14.472	14.791	15.035	15.328	15.404	15.655	15.814	15.750	16.911	16.937	16.831	17.235	17.389	17.700	17.726	17.709	17.716	17.656	17.763	17.605	17.053	16.489	16.011	15.665	15.467	15.748	15.252	14.856	14.214	13.934	13.404	13.180	12.461	12.764	11.869	11.759	10.689	9.767	8.832	8.139	7.203	4.860	3.478	3.383	2.780	3.329	3.153	3.167	3.411	3.252	7.382	8.754	11.137	10.519	10.788	11.225	11.496	11.758	12.104	12.393	12.576	12.751	12.930	13.094	12.926	12.979	12.729	12.408	12.124	11.798	11.692	11.595	11.471	11.334	11.170	10.997	10.049	0.926	-6.279	-7.004	-6.681	-6.745	-7.026	-6.175	-5.498	-5.825	3.574	-5.515	-5.011	-4.349	2.949	2.803	2.760	2.926	2.792	2.869	3.490	4.379	4.379	4.379	4.223	3.569	3.430	3.430	3.430	3.430	3.430	3.430	3.430	3.430	3.430	3.430	3.430	3.430	3.430	3.430	3.633	3.580	3.580	3.580	3.580	3.580	3.580	3.580	3.580	3.580	3.580	3.580	3.580	3.580	4.411	3.053	2.897	3.065	3.132	2.935	2.974	2.908	3.013	3.028	3.084	2.944	2.986	3.245	3.467	3.499	3.378	3.021	3.284	3.633	3.392	3.356	3.214	3.239	3.588	3.270	3.436	3.343	3.194	3.059	3.127	2.975	3.095	3.421	3.607	3.810	2.990	3.099	3.189	3.261	3.156	3.218	3.097	3.245	3.175	3.556	3.408	3.682	3.528	3.249	3.076	3.241	3.238	3.144	3.261	3.321	3.347	3.491	4.987	4.987	4.987	4.987	4.987	4.987	3.341	3.422	3.163	3.294	3.278	3.233	3.333	3.322	-0.641	-5.900	-7.895	-9.492	-9.130	-8.162	-6.399	-4.931	-3.783	-0.727	2.738	2.738	2.863	2.981	3.126	3.117	3.066	3.151	3.527	3.306	3.027	3.074	2.920	3.068	3.078	3.032	3.258	3.158	3.054	3.168	3.123	3.134	3.107
2.712	2.460	2.378	2.637	2.550	2.451	2.463	2.655	2.634	2.717	2.530	2.603	2.616	2.385	2.443	2.315	2.307	2.513	2.567	2.596	2.629	2.718	2.703	2.793	2.553	2.545	2.694	2.690	2.817	3.109	3.194	3.386	3.421	3.553	3.745	3.791	3.966	4.361	4.320	4.269	4.462	4.534	4.680	4.939	4.877	4.894	5.105	5.359	5.454	5.912	6.114	6.318	6.487	6.738	6.869	7.041	7.172	7.295	7.333	7.381	7.473	7.607	7.461	7.436	7.442	7.195	7.020	6.825	7.154	6.867	6.870	7.078	6.252	5.692	6.087	5.996	5.449	5.629	5.696	5.863	5.813	5.464	5.261	4.623	4.392	3.678	3.623	3.185	2.587	2.377	2.323	2.350	2.377	2.386	2.361	2.319	2.349	2.362	2.279	2.240	2.394	2.376	2.668	2.641	2.894	2.698	2.780	2.606	2.663	2.574	2.506	2.502	2.455	2.434	2.911	2.392	2.284	2.226	2.902	2.584	2.401	2.346	2.422	2.476	2.616	2.455	2.345	2.336	2.553	2.696	3.049	4.148	4.792	5.759	6.749	8.375	9.591	11.531	13.003	13.482	13.628	13.598	14.097	14.779	15.616	16.447	17.402	17.902	17.410	17.390	17.079	16.683	16.451	16.122	15.711	14.988	14.989	14.850	14.301	13.755	13.296	13.072	13.029	12.456	12.839	12.826	13.496	14.256	14.017	13.899	13.940	14.263	14.562	15.215	16.306	17.128	17.665	18.446	18.982	19.555	19.993	20.167	20.331	20.757	20.997	21.135	21.328	21.110	20.944	20.771	20.536	20.481	20.345	20.224	19.660	19.274	19.093	18.872	18.421	18.152	18.005	17.718	17.476	16.965	16.878	16.713	16.215	15.786	15.404	14.966	15.127	14.601	14.726	14.385	14.180	14.165	14.145	14.239	14.586	14.716	14.609	14.342	14.190	13.986	13.737	13.641	13.579	13.581	13.557	13.349	13.754	14.151	14.740	15.142	15.288	15.497	15.819	16.002	16.251	16.023	16.939	17.109	17.236	17.407	17.869	17.996	17.990	17.792	17.824	17.847	17.828	17.776	17.050	16.955	16.607	15.620	15.946	15.715	15.013	14.504	14.003	13.342	13.169	12.591	12.352	11.613	11.384	11.179	11.046	11.048	8.702	8.049	6.809	5.175	3.806	3.319	3.457	3.245	3.220	3.240	3.299	7.027	8.122	8.945	11.137	11.137	10.735	11.539	11.759	11.991	12.381	12.586	12.680	12.746	12.810	12.854	12.903	12.833	12.731	12.401	12.010	11.754	11.613	11.379	11.313	11.311	11.149	10.937	11.013	4.305	-1.296	-4.288	-9.008	-7.621	-7.007	-5.937	-5.224	-5.959	-5.869	-5.706	-5.571	-5.531	2.949	2.719	3.072	2.892	2.924	2.990	2.992	3.131	3.425	4.379	4.379	4.379	4.379	3.760	3.430	3.430	3.430	3.430	3.430	3.430	3.430	3.430	3.430	3.430	3.430	3.430	3.633	3.580	3.580	3.580	3.580	3.580	3.580	3.580	3.580	3.580	3.580	3.580	3.580	3.671	3.257	2.905	2.951	3.022	3.418	2.964	2.991	2.940	3.179	3.111	3.003	3.242	3.356	3.179	3.501	3.599	3.681	3.685	3.301	3.351	3.364	3.409	3.463	3.545	3.167	3.302	3.274	3.117	3.013	3.032	3.086	2.969	3.165	3.520	3.449	4.014	2.853	3.416	3.070	3.171	3.278	3.314	3.488	2.945	3.668	3.659	3.768	3.715	3.686	3.354	3.230	4.987	4.987	4.987	4.987	4.987	4.987	4.987	4.987	3.871	4.067	3.514	3.174	3.929	3.490	3.293	3.386	3.393	3.544	3.390	3.291	-5.206	-5.845	-7.675	-8.721	-8.998	-8.870	-7.616	-6.189	-2.866	-0.247	2.738	2.738	2.945	2.942	2.917	3.061	3.101	3.005	3.345	3.199	3.093	3.123	3.089	2.983	3.096	2.923	2.938	2.968	2.916	3.105	3.244	3.238	3.045	2.988
2.480	2.480	2.705	2.631	2.484	2.587	2.618	2.673	2.642	2.713	2.667	2.635	2.658	2.444	2.438	2.300	2.422	2.486	2.516	2.553	2.573	2.747	2.680	2.701	2.699	2.317	2.713	2.945	3.131	3.247	3.562	3.748	3.658	3.753	3.825	3.915	4.190	4.175	4.334	4.499	4.494	4.661	4.721	4.875	5.108	5.241	5.341	5.512	5.688	5.857	6.082	6.216	6.696	6.841	6.930	7.153	7.251	7.458	7.451	7.515	7.671	7.591	7.396	7.520	7.434	7.379	7.126	7.293	7.199	6.920	7.172	6.753	6.634	6.548	6.132	5.867	5.964	5.807	5.795	6.106	5.951	5.805	5.734	5.126	4.383	4.158	3.704	3.441	2.925	2.499	2.419	2.316	2.335	2.410	2.347	2.361	2.314	2.285	2.264	2.215	2.245	2.345	2.331	2.517	2.654	2.765	2.678	2.687	2.639	2.849	2.713	2.516	2.625	2.496	2.669	2.349	2.296	2.270	2.330	3.209	2.657	2.487	2.470	2.504	2.461	2.410	2.379	2.603	2.586	2.428	2.499	3.263	4.336	5.144	6.150	7.462	8.862	9.974	11.653	12.782	12.969	12.917	13.398	14.157	14.870	15.702	16.509	17.090	17.578	17.151	16.904	16.651	16.466	16.337	15.592	15.577	15.420	14.969	14.442	13.927	13.320	12.978	13.066	13.300	12.705	13.135	13.618	13.989	13.988	14.020	14.301	14.276	14.726	15.250	16.307	16.866	17.653	18.295	18.913	19.527	19.971	20.499	20.542	20.848	21.213	21.359	21.283	21.572	21.678	21.100	20.753	20.567	20.611	20.526	19.984	19.442	19.056	18.884	18.614	18.286	18.042	17.789	17.372	16.902	16.745	16.419	16.233	15.730	15.412	15.005	14.778	14.582	14.689	14.500	14.379	14.303	14.494	14.608	14.742	14.710	14.791	14.688	14.380	14.102	13.917	13.668	13.670	13.592	13.593	13.552	13.859	14.684	14.947	15.486	15.591	15.832	16.107	16.391	16.489	16.530	17.204	17.689	17.718	18.237	18.305	18.127	18.100	18.094	18.036	17.931	17.856	17.575	17.261	16.849	16.601	16.167	15.753	15.492	14.837	14.280	13.478	12.960	12.360	11.890	11.380	11.215	10.467	10.530	10.531	10.511	10.213	9.351	7.390	11.137	11.137	3.063	3.353	3.404	3.297	3.311	6.941	8.820	9.411	9.405	10.287	11.137	11.025	11.538	11.881	12.270	12.316	12.640	12.870	12.808	12.851	12.865	12.853	12.743	12.494	12.405	11.949	11.602	11.400	11.148	11.094	11.011	11.114	11.058	10.902	10.869	9.860	1.378	-4.399	-6.321	-9.430	-7.167	-6.739	-5.959	-6.097	-5.931	-5.961	-5.730	2.946	2.886	2.811	2.960	3.010	3.030	3.116	2.987	2.822	2.850	3.807	3.718	4.379	4.379	4.379	4.067	3.430	3.430	3.430	3.430	3.430	3.430	3.430	3.430	3.430	3.430	3.628	3.580	3.580	3.580	3.580	3.580	3.580	3.580	3.580	3.580	3.580	3.580	3.580	3.898	3.058	3.582	3.631	3.563	3.077	3.010	3.067	3.351	2.853	3.172	3.227	3.178	3.211	3.418	3.509	3.566	3.388	3.371	3.651	3.700	3.286	3.193	3.174	3.632	3.273	3.508	3.490	3.287	3.210	3.051	3.059	3.384	3.573	3.599	3.686	4.111	3.818	3.937	3.811	4.033	4.033	4.033	4.033	4.033	4.033	4.033	3.478	3.174	3.825	3.388	3.780	4.987	3.920	3.806	3.719	3.690	3.391	3.192	3.025	3.036	3.132	3.029	3.183	3.238	3.584	3.330	3.370	3.237	3.447	3.230	-5.328	-5.920	-6.736	-8.733	-9.278	-9.327	-7.510	-5.266	-2.638	-0.004	2.738	2.738	3.096	3.075	3.021	3.123	3.109	3.021	3.428	3.095	2.937	2.948	3.233	3.063	3.045	3.117	3.073	3.001	2.879	3.045	2.957	3.011	3.003	3.175	3.047
2.594	2.431	2.614	2.621	2.802	2.872	2.809	2.750	2.564	2.754	2.748	2.584	2.752	2.467	2.538	2.426	2.443	2.409	2.296	2.407	2.507	2.594	2.595	2.581	2.545	2.826	3.082	3.177	3.236	3.474	3.871	3.794	3.954	3.953	3.987	4.084	4.106	4.370	4.369	4.416	4.618	4.660	4.789	4.836	4.955	5.261	5.303	5.639	5.752	5.935	6.094	6.445	6.725	6.980	7.020	7.124	7.340	7.571	7.578	7.857	7.613	7.617	7.589	7.627	7.510	7.432	7.465	7.349	7.134	7.026	6.888	6.633	6.523	6.530	6.629	6.466	6.274	6.293	5.994	5.863	6.254	6.340	6.078	5.518	4.704	4.304	3.890	3.450	3.270	2.545	2.348	2.332	2.376	2.391	2.301	2.312	2.510	2.293	2.229	2.201	2.251	2.251	2.374	2.282	2.562	2.666	2.804	3.010	3.019	2.957	2.931	2.720	2.587	2.648	2.534	2.345	2.377	2.362	2.264	2.494	3.378	2.819	2.685	2.360	2.412	2.419	2.629	2.506	2.414	2.459	2.490	2.710	3.452	4.396	5.714	6.791	7.862	9.052	10.146	11.364	12.041	12.150	12.339	12.882	13.903	14.523	15.558	16.284	16.875	17.006	16.863	16.654	16.366	16.109	15.751	15.326	15.276	14.867	14.745	14.129	13.812	13.333	13.027	13.332	13.559	13.003	13.631	13.868	14.398	14.135	14.499	14.458	14.712	15.155	15.894	16.770	17.481	18.323	18.994	19.499	20.071	20.584	20.976	20.969	21.317	21.461	21.543	21.596	21.806	21.543	21.143	20.740	20.677	20.535	20.239	19.626	19.157	18.837	18.679	18.289	18.003	17.590	17.104	16.926	16.656	16.302	15.936	15.739	15.316	14.974	14.829	14.782	14.674	14.404	14.346	14.570	14.782	14.946	14.732	14.730	14.941	14.838	14.846	14.245	14.017	13.888	13.691	13.716	13.709	13.625	13.995	14.618	15.161	15.312	15.821	15.977	16.275	16.596	16.697	17.309	17.727	17.737	18.325	18.674	18.811	18.433	18.289	18.332	18.162	17.949	17.783	17.858	17.139	16.899	16.489	16.133	15.448	15.055	14.595	13.632	13.199	12.728	12.188	11.061	10.717	10.273	9.887	9.807	9.889	9.898	9.577	9.518	5.821	5.874	11.137	11.137	3.352	3.427	3.446	5.563	8.470	9.311	9.743	10.123	11.137	11.137	11.137	11.657	12.298	12.464	12.469	12.785	12.964	12.912	12.937	12.793	12.744	12.565	12.317	11.991	11.682	11.486	11.183	10.955	10.916	10.735	10.643	10.877	10.723	10.588	10.629	8.694	2.115	-2.317	-7.254	-7.298	-8.482	-7.189	-6.786	-5.778	-6.159	-5.991	3.002	3.150	2.918	2.872	2.903	3.048	2.994	2.837	2.747	2.808	2.734	2.897	3.112	3.743	4.379	4.379	4.379	4.041	3.440	3.430	3.430	3.430	3.430	3.430	3.430	3.430	3.730	3.580	3.580	3.580	3.580	3.580	3.580	3.580	3.580	3.580	3.580	4.001	3.486	2.990	2.967	3.219	3.239	3.182	3.019	3.092	3.132	3.021	3.102	3.058	3.116	3.011	3.257	3.764	3.280	3.524	3.568	3.598	3.579	3.596	2.862	3.149	3.119	3.320	4.227	4.227	4.227	4.227	4.227	4.227	4.227	4.227	4.227	4.227	4.033	4.033	4.033	4.033	4.033	4.033	3.623	3.589	3.437	3.390	4.033	3.216	3.473	3.417	3.731	3.347	4.987	4.987	3.259	3.705	3.817	3.216	3.015	3.309	3.237	3.029	3.149	3.072	3.119	3.154	3.386	3.406	3.449	3.344	3.854	-5.545	-5.962	-6.216	-7.776	-8.521	-8.237	-8.524	-6.229	-4.711	0.959	2.738	2.738	2.899	3.024	3.134	2.968	3.109	3.015	3.441	3.046	2.971	2.908	3.156	3.141	3.073	3.051	3.064	3.140	3.093	2.984	3.060	3.004	3.023	3.208	3.117	3.057
2.465	3.270	2.551	2.633	2.677	2.786	2.889	2.816	2.844	2.748	2.621	2.723	2.669	2.680	2.736	2.558	2.428	2.420	2.331	2.378	2.479	2.495	2.575	2.675	2.823	2.762	2.975	3.284	3.437	3.797	3.695	3.820	4.070	3.989	4.205	4.076	4.426	4.301	4.394	4.410	4.624	4.789	4.699	4.870	5.005	5.131	5.450	5.585	5.789	5.782	5.986	6.149	6.809	6.883	7.112	7.348	7.384	7.573	7.838	7.669	7.743	7.777	7.843	7.750	7.527	7.534	7.699	7.384	7.249	7.128	6.734	6.795	6.421	6.620	6.816	7.070	6.916	6.499	6.235	6.108	6.705	6.818	6.693	5.314	4.764	4.553	4.370	3.919	3.416	2.716	2.399	2.386	2.369	2.315	2.288	2.424	2.423	2.305	2.252	2.285	2.331	2.347	2.273	2.382	2.428	2.653	2.985	3.348	3.289	3.409	3.190	2.930	3.006	2.863	2.725	2.472	2.441	2.492	2.433	2.450	2.612	2.735	2.540	2.686	2.454	2.734	2.701	2.488	2.432	2.532	2.422	2.717	2.784	4.156	4.926	5.850	6.844	8.042	9.013	9.746	10.482	10.678	11.311	11.959	12.417	13.770	14.718	15.465	16.148	16.782	16.920	16.619	16.320	15.999	15.755	15.545	15.142	15.075	14.786	14.461	14.090	13.637	13.438	13.229	13.617	13.499	13.425	13.581	14.151	14.516	14.467	15.014	14.785	15.117	15.469	16.586	17.517	18.260	18.842	19.538	19.985	20.331	21.035	21.446	21.530	21.921	21.826	21.744	21.677	21.901	21.194	21.054	20.728	20.554	20.430	20.065	19.472	19.040	18.679	18.349	17.857	17.502	17.220	16.966	16.694	16.251	15.962	15.520	15.339	15.110	14.894	14.722	14.500	14.450	14.804	14.668	15.118	14.999	14.935	15.008	14.869	14.918	14.869	14.432	14.284	14.055	13.900	13.836	13.861	13.910	14.335	14.659	15.111	15.421	15.754	16.168	16.431	16.698	16.987	17.912	18.415	18.464	18.626	19.272	18.989	18.919	18.798	18.428	18.443	18.283	18.029	17.875	17.454	16.948	16.401	15.998	15.409	14.711	14.129	13.610	13.040	12.425	11.446	10.554	9.572	9.124	9.187	7.887	8.865	8.996	8.614	7.540	3.854	3.980	4.617	11.137	11.137	11.137	5.297	8.290	9.195	9.702	10.212	11.137	11.137	11.900	12.125	12.477	12.442	12.614	12.758	12.611	12.810	12.952	12.986	12.868	12.613	12.378	12.009	11.759	11.434	11.181	10.973	10.732	10.547	10.566	10.696	10.590	10.368	10.439	10.509	10.084	3.092	2.262	-1.861	-4.920	-8.116	-7.983	-7.882	-7.282	-6.557	-5.787	-6.095	3.574	3.129	3.180	2.841	2.921	2.926	2.939	2.873	2.799	2.943	2.821	2.763	2.905	3.453	3.595	4.379	4.379	4.379	4.379	4.179	4.170	3.978	3.913	3.917	3.747	3.996	3.675	3.580	3.580	3.636	3.677	3.820	3.930	4.014	4.154	3.674	3.102	3.055	2.981	2.969	3.139	3.190	3.026	3.147	3.097	3.192	3.309	3.369	3.477	3.333	3.289	3.188	3.081	4.227	4.227	4.227	4.227	4.227	4.227	4.227	4.227	4.227	4.227	4.227	3.009	2.834	3.128	3.101	3.107	3.161	3.105	3.302	3.213	3.259	3.537	3.264	3.065	3.205	3.177	3.188	3.285	3.265	3.314	4.033	2.768	3.649	3.725	3.528	3.467	4.987	3.486	3.159	3.085	3.159	3.042	3.231	2.962	2.994	3.017	3.040	3.213	3.173	3.329	3.933	3.410	3.252	-4.836	-5.678	-5.888	-6.657	-6.389	-8.310	-8.903	-6.489	-5.821	-4.050	0.258	2.738	2.738	2.957	3.077	3.077	3.015	3.220	3.104	3.461	3.037	3.001	2.831	3.144	3.174	3.026	3.142	3.062	3.036	3.011	3.046	2.928	3.109	3.059	2.938	3.181	3.191	3.086
2.578	2.299	3.177	2.847	2.670	2.797	2.811	2.876	2.820	2.603	2.818	2.669	2.643	2.658	2.662	2.619	2.518	2.378	2.367	2.445	2.472	2.664	2.601	2.924	2.995	3.104	3.198	3.192	3.406	3.589	3.727	3.903	4.011	4.161	4.249	4.265	4.188	4.362	4.317	4.479	4.511	4.583	4.771	4.775	4.823	4.941	5.256	5.420	5.675	5.829	6.148	6.133	6.434	6.941	7.215	7.416	7.524	7.764	7.894	7.826	7.620	7.777	7.975	7.782	7.685	7.684	7.699	7.510	7.399	7.118	7.124	6.888	6.843	6.691	6.905	6.765	6.819	7.154	6.429	6.917	7.078	7.081	6.019	5.647	5.270	4.972	4.749	3.878	3.508	3.279	2.576	2.372	2.342	2.350	2.394	2.454	2.318	2.299	2.308	2.507	2.547	2.492	2.415	2.333	2.498	2.602	2.744	3.265	3.350	3.424	3.532	3.426	3.260	2.801	2.867	2.785	2.735	2.505	2.502	2.481	2.483	2.686	3.017	2.544	2.964	2.921	2.791	2.515	2.562	2.386	2.647	2.431	2.444	3.199	4.556	5.057	5.782	6.827	8.038	8.437	8.807	9.122	9.979	10.656	11.530	12.566	13.621	14.502	15.188	15.898	16.590	16.550	16.083	15.931	15.875	15.642	15.550	15.269	15.077	14.740	14.222	14.030	13.729	13.659	13.487	13.368	13.306	13.621	14.218	14.662	15.104	15.270	15.659	15.247	15.378	16.262	17.359	18.142	18.721	19.438	19.830	20.349	20.891	21.473	21.774	21.945	21.809	21.958	21.821	22.123	21.625	21.105	20.992	20.729	20.426	20.107	19.559	19.141	18.755	18.453	17.883	17.456	17.138	16.817	16.377	16.185	15.886	15.580	15.224	15.166	14.939	14.669	14.672	14.510	14.737	15.144	15.145	15.147	15.235	15.194	15.032	15.064	14.816	14.743	14.417	14.216	14.094	13.875	13.961	13.999	14.500	14.869	15.259	15.651	15.905	16.204	16.619	16.907	17.122	18.059	18.245	18.739	19.278	19.320	19.429	19.298	19.025	18.854	18.518	18.454	18.096	17.945	17.552	16.926	16.218	15.827	15.337	14.570	13.937	13.665	13.159	11.927	11.049	10.291	9.482	8.900	8.916	6.840	7.259	7.479	7.605	5.118	3.879	3.099	3.093	3.533	5.156	11.137	11.137	9.537	9.715	10.372	11.137	11.137	11.968	12.186	12.319	12.536	12.688	12.844	12.925	12.927	12.942	12.912	12.835	12.789	12.616	12.116	11.842	11.519	11.363	10.913	10.672	10.545	10.383	10.393	10.343	10.187	10.147	10.030	9.916	9.814	9.817	2.116	0.899	-0.196	-4.890	-7.591	-8.523	-9.227	-8.384	-7.049	-6.094	-5.998	-5.837	3.118	3.288	3.092	2.899	2.922	3.131	3.241	2.907	2.828	2.800	2.905	3.050	2.967	3.127	3.062	3.337	4.379	4.379	4.379	4.379	4.379	4.379	3.021	3.170	3.209	3.212	3.303	3.200	2.946	3.011	3.039	3.031	3.010	3.021	2.957	3.001	3.024	3.014	3.233	4.227	4.227	4.227	4.227	4.227	4.227	4.227	4.227	4.227	4.227	4.227	4.227	4.227	3.433	3.485	3.462	3.198	3.088	3.191	3.245	3.227	3.243	3.090	3.072	2.952	3.407	3.225	3.239	3.292	3.161	3.211	3.307	3.107	3.393	3.211	3.163	3.278	3.108	3.585	3.121	3.230	3.375	4.033	3.343	3.792	4.027	3.505	4.088	4.987	3.151	3.102	3.065	3.055	2.997	3.063	3.256	3.175	3.461	3.348	3.315	3.563	3.463	3.695	-0.940	-5.169	-5.794	-6.899	-7.998	-8.528	-7.881	-7.491	-7.170	-5.940	-5.031	-5.432	2.738	2.738	2.973	3.128	3.067	2.952	3.115	3.104	3.404	2.858	2.987	2.881	3.089	3.166	3.098	3.051	2.951	3.109	3.008	2.909	2.974	2.977	2.992	2.952	3.080	3.184	3.070	3.152
2.666	2.971	2.234	2.587	2.731	2.803	2.784	2.703	2.564	2.629	2.588	2.729	2.626	2.619	2.668	2.548	2.439	2.314	2.416	2.370	2.781	2.494	2.453	2.898	3.008	2.980	3.246	3.185	3.354	3.637	3.668	3.818	3.690	3.866	4.032	4.016	4.089	4.197	4.265	4.230	4.414	4.418	4.621	4.681	4.732	4.875	5.085	5.348	5.555	5.854	6.020	6.249	6.438	7.044	7.135	7.374	7.578	7.774	7.798	7.798	7.798	7.831	7.911	7.886	7.639	7.681	7.731	7.588	7.537	7.351	7.277	7.108	6.971	7.026	7.065	6.864	6.858	6.772	7.201	7.267	7.185	6.519	6.168	5.923	5.648	5.394	4.767	4.193	3.668	3.604	2.755	2.408	2.300	2.464	2.565	2.336	2.291	2.318	2.345	2.473	2.501	2.495	2.500	2.480	2.410	2.686	2.771	2.845	3.504	3.542	3.735	3.733	3.813	2.958	2.834	2.955	2.668	2.593	2.591	2.524	2.635	2.816	2.939	3.050	2.510	3.019	2.607	2.594	2.574	2.760	2.417	2.240	2.508	2.698	3.700	4.477	4.943	5.927	6.587	7.482	7.638	8.040	8.728	9.540	10.541	11.304	12.318	13.363	14.149	14.772	15.653	16.078	16.178	15.942	15.906	16.161	15.902	15.488	15.294	15.032	14.717	14.354	14.030	13.894	13.625	13.374	13.310	13.577	14.088	14.636	15.327	15.709	16.425	16.731	16.216	16.223	17.309	17.961	18.665	19.108	19.983	20.303	21.005	21.656	21.729	21.869	22.001	22.110	22.048	22.063	21.930	21.687	21.341	20.789	20.397	20.125	19.696	19.126	18.796	18.367	17.919	17.513	17.073	16.846	16.496	16.123	15.962	15.695	15.456	15.264	15.008	14.775	14.730	14.750	14.799	15.204	15.487	15.395	15.392	15.319	15.365	15.162	15.023	14.763	14.744	14.460	14.254	14.049	13.993	14.182	14.523	15.061	15.434	15.715	16.049	16.357	16.609	16.922	17.092	18.549	18.555	18.951	19.294	19.435	19.383	19.513	19.398	19.055	18.806	18.599	18.237	17.831	17.293	16.779	16.110	15.607	15.094	14.599	14.100	13.843	13.062	11.925	10.987	10.347	9.642	8.897	7.343	4.858	5.043	4.803	3.920	3.555	3.349	3.160	3.041	3.105	3.597	6.640	11.137	11.137	11.137	11.137	11.137	11.688	12.030	12.282	12.442	12.659	12.797	12.988	13.098	13.166	13.106	13.016	12.946	12.866	12.521	12.411	11.846	11.521	11.117	10.875	10.616	10.441	10.261	10.105	9.842	9.963	9.914	9.919	9.430	9.396	9.395	8.859	2.169	-0.540	-4.778	-5.628	-7.322	-10.387	-9.589	-8.768	-7.341	-6.571	-5.797	-5.747	1.018	2.981	3.301	2.844	2.852	3.089	3.095	2.971	3.139	2.892	3.007	3.505	2.903	2.858	2.877	2.874	3.025	3.285	3.408	3.402	4.379	4.379	4.379	4.379	4.379	4.379	4.379	4.379	4.379	4.227	4.227	4.227	4.227	4.227	4.227	4.227	4.227	4.227	4.227	3.170	3.016	2.992	3.030	3.245	3.323	2.942	3.371	3.232	3.362	3.783	3.237	3.262	3.227	3.489	3.184	3.336	3.253	3.198	3.214	3.117	3.613	3.673	3.617	3.690	3.472	3.246	3.345	3.543	3.432	2.986	2.699	3.634	3.104	3.106	3.179	3.484	3.101	3.089	3.151	3.030	4.033	3.958	4.033	4.033	4.033	4.033	4.033	3.667	2.936	3.428	3.032	3.152	3.229	3.335	3.399	3.508	3.610	3.462	3.416	3.283	-4.808	-5.436	-5.762	-7.128	-8.783	-9.162	-9.211	-7.944	-7.696	-6.175	-5.552	-5.794	2.738	2.738	2.944	3.004	3.138	3.139	3.062	3.136	3.376	2.838	2.855	2.821	3.041	3.166	3.049	3.038	3.012	3.162	2.917	2.963	2.931	2.903	2.868	2.902	2.927	3.070	2.968	2.852	2.955
2.793	1.834	2.061	2.684	2.368	2.745	2.675	2.548	2.735	2.778	2.712	2.553	2.549	2.649	2.574	2.469	2.350	2.308	2.512	2.363	2.638	2.516	2.509	2.735	2.947	3.047	2.897	3.167	3.218	3.314	3.485	3.696	3.730	3.660	3.772	3.830	3.980	3.973	4.018	4.136	4.046	4.214	4.317	4.385	4.672	4.745	4.925	5.099	5.517	5.655	6.020	6.266	6.408	6.620	6.944	7.566	7.816	7.572	7.781	7.762	7.908	7.945	7.768	7.633	7.766	7.800	7.679	7.742	7.540	7.566	7.343	7.218	7.420	7.237	7.345	7.359	7.109	7.037	6.882	6.945	7.180	6.499	6.451	6.234	5.910	5.513	4.906	4.480	3.975	3.743	3.486	2.728	2.527	2.784	2.457	2.418	2.400	2.357	2.322	2.376	2.509	2.571	2.448	2.462	2.530	2.647	2.682	2.768	2.898	3.719	3.718	4.067	3.809	3.858	3.680	3.369	3.395	2.911	2.907	3.338	2.790	2.792	2.791	2.682	2.940	2.610	2.956	2.727	2.869	2.492	2.460	2.522	2.506	2.610	2.662	3.666	4.516	4.981	5.576	6.040	6.641	6.878	7.405	8.480	9.038	10.097	11.258	12.311	13.152	13.891	14.547	15.173	15.998	15.989	16.172	16.029	16.025	15.909	15.581	15.377	15.110	14.782	14.390	14.008	13.940	13.787	13.560	13.519	13.841	14.509	15.060	15.229	16.072	16.956	17.371	17.089	17.489	17.890	18.518	19.186	19.754	20.418	21.030	21.429	21.578	22.045	22.066	22.105	22.085	22.165	22.085	21.950	21.419	20.891	20.386	19.983	19.621	19.148	18.787	18.373	17.957	17.547	17.150	16.705	16.467	16.194	16.030	15.732	15.628	15.346	15.136	14.961	14.942	15.022	15.108	15.232	15.447	15.888	15.736	15.656	15.447	15.354	15.210	15.130	14.968	14.597	14.371	14.308	14.329	14.324	14.759	15.146	15.563	15.953	16.181	16.452	16.794	17.104	17.155	18.976	18.986	18.705	19.361	19.467	19.293	19.270	19.532	19.267	19.068	18.723	18.220	17.770	17.280	16.439	16.141	15.556	15.095	14.609	14.179	13.670	13.078	12.116	11.372	10.781	10.003	9.228	8.201	6.629	4.246	4.924	3.798	3.683	3.394	3.328	3.899	3.418	5.360	8.230	9.396	10.125	11.137	11.137	11.634	12.056	12.402	12.359	12.622	12.795	12.976	13.184	13.319	13.325	13.227	13.165	12.959	12.959	12.393	12.641	12.025	11.731	11.113	10.740	10.525	10.356	10.102	9.685	9.477	9.463	9.494	9.460	9.003	8.560	8.271	7.427	3.298	1.512	-3.861	-4.611	-6.396	-7.388	-8.527	-10.299	-8.545	-7.675	-6.630	-6.209	-5.767	-5.269	3.052	3.080	3.178	2.993	2.906	2.945	3.301	2.959	2.893	3.175	2.869	2.836	2.745	2.760	2.770	3.311	3.403	3.022	2.999	3.201	3.419	3.259	3.353	3.129	3.295	3.397	3.389	3.599	3.351	3.025	3.287	2.972	2.982	3.233	3.080	3.106	3.308	3.273	2.976	3.118	3.243	3.243	3.087	3.284	3.418	3.172	3.244	3.635	3.220	3.274	3.151	3.553	3.103	3.085	2.985	3.223	3.318	3.657	3.392	-1.000	-1.000	1.342	-4.472	-4.799	-4.517	-4.957	-4.838	-5.106	-1.941	2.144	0.866	1.607	3.464	3.187	2.780	2.919	3.031	3.083	4.033	4.033	4.033	1.635	3.788	3.147	3.093	3.248	3.595	3.491	3.539	3.590	3.557	3.440	3.354	3.364	3.302	3.454	2.480	-5.306	-5.684	-6.374	-7.053	-8.325	-8.672	-8.509	-7.346	-5.960	-5.494	-5.137	-4.234	2.738	2.738	2.926	3.025	3.007	3.107	3.142	3.158	3.260	2.875	2.992	2.757	2.970	2.998	3.024	3.085	2.951	3.030	2.917	2.867	3.015	2.926	3.051	2.991	2.880	3.070	3.085	3.069	3.004	2.954
1.966	1.984	2.574	2.715	3.269	2.339	2.546	2.522	2.737	2.670	2.603	2.598	2.680	2.645	2.399	2.339	2.450	2.468	2.453	2.306	2.486	2.414	1.957	2.768	2.818	2.998	2.970	2.965	3.124	3.083	3.250	3.390	3.537	3.459	3.597	3.534	3.794	3.869	3.821	4.019	3.978	4.068	4.057	4.328	4.352	4.628	4.846	5.085	5.321	5.674	6.018	6.262	6.274	6.790	7.254	7.502	7.825	7.862	7.719	7.879	8.083	8.049	7.936	7.899	7.937	7.883	7.910	7.730	7.873	7.713	7.658	7.526	7.570	7.605	7.505	7.535	7.477	7.304	7.079	7.015	6.994	6.789	6.657	6.535	5.979	5.520	5.052	4.640	4.147	3.701	3.630	3.431	2.954	2.994	2.819	2.538	2.458	2.367	2.365	2.313	2.484	2.608	2.534	2.530	2.485	2.516	2.511	2.613	2.946	3.710	4.020	4.209	4.053	4.051	4.207	4.003	3.862	3.622	3.096	2.851	3.014	3.187	2.797	2.708	2.751	2.730	2.458	2.876	2.489	2.417	2.688	2.569	2.710	2.576	2.401	2.630	3.783	4.489	4.760	5.397	5.710	6.050	6.594	7.494	8.067	8.538	10.360	11.425	12.179	12.976	13.700	14.436	15.336	16.067	16.037	16.028	16.087	16.112	15.836	15.592	15.369	14.998	14.746	14.649	14.467	14.183	13.847	13.692	13.810	14.122	14.902	14.646	15.558	16.806	17.586	17.375	17.623	17.971	18.558	19.081	19.745	20.182	20.654	21.374	21.694	21.993	22.045	22.063	22.092	22.111	22.199	22.049	21.591	20.973	20.545	20.002	19.802	19.251	18.795	18.399	17.974	17.552	17.096	16.840	16.479	16.378	15.908	15.786	15.507	15.413	15.377	15.378	15.270	15.287	15.223	15.346	15.541	15.604	16.093	15.753	15.721	15.550	15.575	15.456	15.082	14.874	14.587	14.520	14.491	14.880	14.957	15.462	15.617	16.009	16.358	16.643	16.897	17.049	17.250	18.986	19.197	19.185	19.150	19.160	19.878	19.359	19.454	19.587	19.411	18.675	18.366	17.905	17.079	16.137	15.780	15.552	14.943	14.590	14.357	13.499	12.700	12.048	11.577	10.976	10.346	9.406	8.623	7.553	4.648	4.208	4.488	3.910	3.517	3.388	3.462	5.522	6.960	8.682	9.717	10.572	11.244	11.734	11.688	12.257	12.525	12.661	13.028	13.231	13.412	13.571	13.492	13.456	13.270	13.134	12.951	12.830	12.734	12.483	12.105	12.055	11.626	10.828	10.433	10.183	9.813	9.226	8.914	8.877	8.789	8.557	8.165	8.022	7.840	7.581	7.023	5.235	1.703	-1.473	-6.090	-5.471	-6.324	-7.488	-8.265	-8.760	-7.701	-6.782	-5.919	-5.718	-5.708	-5.212	1.477	3.232	2.946	2.947	2.928	2.936	3.276	2.858	2.829	2.805	2.777	2.748	2.846	3.002	3.178	2.910	2.991	2.994	3.231	3.071	3.159	3.248	3.012	3.001	3.261	3.129	3.244	3.160	3.181	3.108	3.079	3.462	3.221	3.164	3.297	3.274	2.987	3.211	3.224	3.183	3.112	3.074	3.107	3.093	3.297	3.719	3.499	3.869	3.811	3.664	3.637	3.378	3.317	2.844	-4.289	-4.192	-4.172	-3.946	-4.265	-4.908	-4.870	-5.797	-5.435	-5.468	-5.292	-5.573	-4.648	-4.264	-4.446	-4.316	-3.825	-3.455	-2.864	-4.183	-4.541	-4.597	-4.683	-4.719	-4.113	-2.592	-4.871	-4.499	-4.852	-5.500	-5.444	2.690	2.851	0.740	3.229	3.002	2.486	-3.699	-4.224	-4.773	-5.700	-6.263	-6.384	-6.292	-8.387	-8.852	-8.715	-8.613	-6.727	-4.954	-4.725	-1.225	2.738	2.738	3.064	3.118	3.079	3.164	3.200	3.211	3.132	2.924	2.917	3.045	3.036	3.137	2.962	3.063	3.009	3.053	2.950	2.868	2.938	2.926	3.006	2.865	2.987	3.033	3.047	2.994	3.084	2.991	2.993
1.777	3.248	2.609	2.716	2.997	2.868	2.615	2.514	2.619	2.593	2.474	2.397	2.216	2.282	2.286	2.256	2.298	2.355	2.340	2.352	2.392	2.398	2.482	2.242	2.609	2.427	2.954	2.803	2.854	3.202	3.131	3.253	3.014	3.141	3.111	3.559	3.477	3.555	3.741	3.754	3.726	3.823	4.067	4.149	4.458	4.538	4.788	5.047	5.409	5.777	6.071	6.181	6.530	6.925	7.389	7.565	7.684	8.034	7.901	7.955	8.015	8.264	7.933	7.907	7.981	8.014	8.078	7.955	8.013	7.897	7.845	7.770	7.710	7.684	7.758	7.725	7.623	7.585	7.397	7.270	7.106	6.929	6.662	6.412	5.965	5.551	5.205	4.611	4.315	4.079	3.728	3.685	3.148	3.336	2.989	2.691	2.601	2.424	2.414	2.432	2.402	2.437	2.511	2.461	2.417	2.487	2.496	2.562	3.286	3.725	4.247	4.476	4.861	4.577	4.571	4.565	4.405	4.024	3.852	3.728	3.463	3.608	3.730	2.979	2.718	2.873	2.880	2.925	2.553	2.470	2.439	2.677	2.493	2.496	2.320	2.308	2.377	3.000	4.001	4.657	5.157	5.429	5.671	6.507	7.305	8.649	9.953	11.042	11.820	12.488	13.164	13.956	14.933	15.572	16.258	16.103	16.357	16.231	16.111	15.897	15.598	15.273	15.391	15.177	14.824	14.468	14.169	13.930	13.881	14.172	14.727	14.977	15.131	16.470	17.387	17.466	17.841	18.053	18.605	19.156	19.679	20.209	20.729	21.294	21.732	21.877	22.012	22.078	22.085	22.264	22.323	22.173	21.916	21.191	20.602	20.144	19.883	19.453	18.773	18.362	18.000	17.664	17.274	16.877	16.574	16.221	15.933	15.856	15.603	15.619	15.611	15.513	15.404	15.250	15.260	15.539	15.729	15.735	15.828	16.291	15.912	15.893	15.864	15.605	15.274	15.094	14.915	14.658	14.800	15.043	15.403	15.621	15.837	16.112	16.388	16.699	17.005	17.217	17.309	19.108	19.062	19.304	19.425	19.259	19.464	19.816	19.443	19.081	19.150	18.840	17.954	17.520	17.068	16.154	15.494	15.247	14.993	14.609	14.221	13.398	12.281	11.953	11.344	10.579	9.996	9.574	8.796	7.678	4.440	3.429	3.348	3.904	3.402	3.277	3.790	6.064	8.192	9.535	10.533	11.157	11.658	11.929	12.300	12.329	12.760	12.933	13.378	13.611	13.842	13.729	13.315	13.506	13.436	13.378	13.237	12.719	12.697	12.294	12.096	12.125	11.631	11.148	10.727	9.993	9.418	9.004	8.678	8.424	8.444	8.062	7.957	7.840	7.990	8.050	8.505	8.694	8.747	4.550	0.214	-3.423	-5.959	-5.806	-6.421	-7.178	-7.999	-7.372	-6.604	-6.034	-5.874	-5.578	-5.346	-0.487	2.266	2.418	2.933	2.848	3.546	2.800	2.791	2.779	2.881	2.807	2.944	3.002	2.918	2.966	2.991	3.074	3.232	3.048	3.041	3.096	2.994	3.419	3.423	3.333	3.399	3.296	3.402	3.002	3.071	3.202	3.325	3.403	3.471	3.375	3.464	3.818	3.684	3.634	3.466	3.260	2.174	2.463	2.866	2.704	3.191	-4.448	-4.678	-4.531	-4.722	-5.083	-5.372	-5.430	-5.593	-4.379	-4.871	-4.504	-5.640	-6.199	-6.737	-7.579	-7.274	-7.005	-6.889	-6.804	-6.025	-6.015	-6.212	-6.047	-5.937	-5.730	-5.763	-5.820	-5.896	-5.852	-5.833	-5.801	-5.666	-5.719	-5.652	-5.643	-5.755	-5.789	-5.916	-5.932	-5.981	-5.783	-5.698	-5.655	-5.439	-5.644	-5.905	-6.404	-6.934	-8.261	-8.447	-8.213	-9.185	-7.656	-6.487	-5.892	-5.448	-4.626	-0.042	2.738	2.738	3.262	3.317	2.980	3.208	3.098	3.617	3.035	2.939	2.918	2.877	3.081	3.143	3.014	2.927	2.945	2.852	2.955	3.040	2.940	2.917	2.960	2.856	2.945	3.031	3.171	2.993	3.004	3.017	2.967	3.043
3.166	2.161	3.024	2.983	2.864	2.622	2.391	2.534	2.557	2.461	2.234	2.176	2.284	2.228	2.325	2.204	2.270	2.234	2.306	2.381	2.320	2.325	2.336	2.318	2.365	2.454	2.491	2.564	2.255	2.624	3.032	2.951	2.925	2.772	2.979	2.957	3.159	3.200	3.440	3.346	3.345	3.828	3.980	4.199	4.393	4.684	4.857	5.180	5.527	5.939	6.064	6.383	6.670	7.073	7.380	7.565	7.951	8.046	8.111	8.065	8.083	7.960	8.094	7.855	8.006	8.130	7.962	8.101	7.882	7.873	8.112	7.890	8.095	7.886	7.881	7.878	7.834	7.701	7.470	7.520	7.216	6.699	6.431	6.371	6.090	5.477	5.134	4.840	4.573	4.387	4.066	3.908	3.770	3.386	3.376	3.067	2.826	2.682	2.499	2.472	2.441	2.483	2.447	2.431	2.433	2.486	2.588	3.069	3.481	4.170	4.162	4.528	5.144	5.169	5.041	4.946	4.928	4.601	4.338	4.134	3.953	3.757	3.758	4.069	3.695	3.439	2.799	2.955	3.119	2.557	2.619	2.660	2.496	2.432	2.420	2.293	2.287	2.432	2.889	3.479	4.115	4.523	5.009	5.989	6.978	8.170	9.614	10.970	11.668	12.578	13.013	13.656	14.604	15.125	15.903	16.486	16.458	16.321	16.260	16.196	15.833	15.751	15.607	15.636	15.387	14.868	14.519	14.179	14.156	14.224	14.571	15.053	15.289	16.151	16.726	17.604	18.187	18.529	19.046	19.448	19.853	20.333	20.869	21.398	21.704	21.908	22.003	22.067	22.204	22.127	22.090	22.121	21.944	21.400	20.887	20.533	20.018	19.490	18.930	18.500	18.192	17.788	17.171	16.833	16.560	16.299	16.202	15.857	15.810	15.883	15.758	15.578	15.475	15.335	15.543	15.754	15.870	16.010	16.059	16.038	16.232	16.224	16.028	15.826	15.500	15.228	15.159	15.013	15.071	15.456	15.590	15.815	15.923	16.242	16.442	16.795	17.046	17.232	17.725	19.123	19.135	19.254	19.595	19.341	19.339	19.575	19.010	19.077	19.091	18.505	18.010	17.450	16.756	16.175	15.408	14.946	14.854	14.622	13.716	12.970	12.059	11.572	10.812	10.409	9.776	9.362	8.307	5.629	3.869	3.292	3.270	3.836	3.809	3.811	5.317	7.571	9.064	10.238	11.008	11.516	11.953	12.178	12.523	12.767	12.912	12.924	13.260	13.571	13.630	13.375	13.631	13.537	13.187	13.547	12.875	12.596	12.435	12.219	12.150	12.011	11.485	11.150	10.838	10.105	9.471	8.642	8.451	8.228	8.160	8.162	8.087	8.474	8.767	8.917	9.177	8.990	8.907	9.039	9.012	3.117	-0.675	-5.177	-5.892	-6.004	-6.411	-7.635	-6.904	-5.484	-6.072	-5.872	-6.022	-5.677	-5.447	-1.090	-1.090	3.541	3.011	2.894	2.866	2.943	2.927	2.837	3.234	3.016	2.955	2.917	2.941	2.999	3.038	2.899	2.977	3.000	3.021	3.298	3.500	3.504	3.475	3.563	3.459	3.562	3.351	3.778	3.285	3.216	1.590	-1.030	-4.523	-4.372	-4.383	-4.550	-4.714	-4.585	-4.848	-5.191	-5.432	-5.509	-5.477	-5.700	-5.766	-5.874	-5.966	-6.128	-6.021	-6.505	-6.648	-6.633	-7.450	-7.954	-9.015	-9.319	-9.368	-8.753	-8.906	-10.812	-9.458	-9.370	-10.078	-8.501	-8.961	-8.637	-7.779	-7.794	-7.611	-7.456	-7.037	-6.739	-6.865	-6.791	-6.648	-6.769	-6.581	-6.370	-6.019	-5.815	-6.883	-6.989	-7.070	-6.660	-7.021	-7.127	-7.586	-7.726	-8.466	-9.424	-9.798	-9.198	-8.696	-9.750	-7.163	-5.947	-5.297	-4.793	-3.821	2.738	2.738	2.738	3.381	3.999	6.020	3.394	3.200	3.465	2.826	2.940	2.988	2.953	3.065	3.084	3.015	2.990	2.951	2.926	2.875	2.886	2.971	2.852	2.851	2.934	2.997	2.981	3.027	2.929	2.935	2.999	2.980	2.990	3.089
2.773	3.113	2.676	2.604	3.042	2.726	2.970	2.305	2.549	2.296	2.225	2.078	2.325	2.343	2.151	2.225	2.143	2.360	2.333	2.269	2.404	2.441	2.517	2.543	2.428	2.357	2.336	2.300	2.426	2.488	2.734	2.496	2.455	2.425	2.559	2.642	2.702	3.188	3.203	3.188	3.337	3.664	4.076	4.266	4.714	4.899	5.151	5.528	5.885	5.862	6.309	6.603	6.914	7.206	7.533	7.837	8.178	8.217	8.193	8.134	8.334	8.044	7.817	7.928	8.169	8.093	8.083	8.180	8.194	8.140	8.217	8.109	8.144	7.924	8.064	7.961	7.720	7.618	7.517	7.301	7.013	6.506	6.237	5.968	6.174	5.768	5.108	4.969	4.787	4.639	4.436	4.175	3.969	3.648	3.283	3.404	3.464	3.125	2.930	2.609	2.570	2.529	2.526	2.454	2.508	2.507	2.547	3.111	3.675	3.820	4.282	4.765	5.251	5.498	5.583	5.305	5.325	5.167	5.090	4.495	4.301	4.211	4.241	4.225	4.184	4.207	3.377	2.829	2.800	3.103	2.922	2.575	2.506	2.518	2.482	2.374	2.244	2.274	2.433	2.842	3.281	3.688	4.839	5.954	6.755	8.001	9.380	10.747	11.958	12.346	13.271	13.750	14.432	15.048	15.709	16.327	16.686	16.596	16.491	16.092	16.281	16.030	15.917	15.939	15.798	15.511	15.049	14.625	14.416	14.428	14.593	14.960	15.426	15.766	16.532	17.076	18.012	18.964	19.238	19.585	20.052	20.597	21.026	21.357	21.671	21.939	22.124	22.216	22.172	21.963	21.853	21.946	21.982	21.459	20.965	20.463	20.089	19.584	19.114	18.631	18.184	17.796	17.261	16.841	16.432	16.361	16.000	16.014	16.217	15.975	15.773	15.788	15.729	15.600	15.793	15.964	16.070	16.284	16.288	16.246	16.352	16.339	16.143	15.995	15.774	15.470	15.369	15.294	15.578	15.787	15.899	15.921	16.164	16.282	16.607	16.731	16.958	17.555	17.534	18.886	18.606	18.928	19.246	19.079	19.065	18.968	18.907	18.764	18.548	18.190	17.628	17.266	16.722	15.829	15.315	15.199	14.639	14.145	13.695	12.641	11.795	11.217	10.952	9.511	8.991	8.509	6.203	3.737	3.231	3.214	3.214	3.281	4.693	4.595	6.998	8.746	9.820	10.768	11.349	11.648	12.136	12.332	12.690	12.929	13.148	13.147	13.362	13.686	13.413	13.421	13.533	13.326	12.990	12.997	12.765	12.800	12.459	12.310	12.300	11.691	11.084	10.791	10.545	10.156	9.907	9.754	8.499	8.433	8.694	8.615	8.671	9.010	9.330	9.587	9.648	9.629	9.417	9.344	9.323	9.251	5.751	1.278	-1.940	-5.997	-5.845	-6.652	-6.931	-6.465	-6.959	-6.467	-5.777	-6.299	-6.032	-5.478	-5.316	-4.567	-1.080	-0.420	3.293	3.256	3.329	3.194	3.175	2.732	3.245	3.280	2.985	3.617	3.434	3.387	1.518	0.940	1.200	3.431	3.118	0.941	-1.040	-4.351	-4.546	-4.626	-4.589	-4.658	-4.717	-4.959	-5.593	-4.946	-5.191	-5.573	-5.576	-5.707	-5.799	-5.943	-5.961	-6.210	-6.201	-6.021	-6.347	-6.429	-6.568	-6.714	-6.964	-7.297	-7.668	-7.854	-8.646	-8.922	-11.412	-9.588	-10.778	-9.352	-9.131	-8.285	-8.337	-8.850	-8.451	-8.246	-8.373	-8.042	-8.098	-8.254	-8.273	-8.235	-8.384	-7.927	-8.107	-8.310	-8.963	-8.228	-7.723	-7.519	-7.475	-7.988	-8.575	-7.736	-7.513	-7.599	-7.691	-8.109	-7.643	-7.747	-8.999	-9.183	-9.941	-9.936	-9.240	-7.885	-6.305	-6.340	-5.714	-4.767	-4.332	-2.750	2.738	2.738	3.113	3.602	5.335	6.433	6.614	6.554	3.456	3.023	2.895	2.891	3.019	3.018	3.029	2.989	2.913	3.041	2.898	2.914	2.944	2.816	2.906	2.685	2.752	2.948	2.921	2.945	3.148	2.904	2.917	2.921	2.965	2.991	3.030
3.155	2.658	2.869	2.511	2.796	2.789	2.789	2.787	2.331	2.154	2.282	2.296	2.261	2.418	2.229	2.235	2.302	2.332	2.267	2.469	2.508	2.503	2.555	2.578	2.461	2.327	2.342	2.242	2.233	2.515	2.216	2.568	2.447	2.442	2.492	2.508	2.839	3.167	3.100	3.280	3.511	3.672	4.054	4.434	4.647	4.993	5.482	5.783	5.910	6.148	6.417	6.842	7.120	7.376	7.491	8.028	8.137	8.156	8.141	8.298	8.233	8.253	8.255	8.124	8.242	8.199	8.274	8.331	8.316	8.356	8.299	8.160	8.141	8.135	7.881	7.758	7.557	7.367	7.169	7.117	6.484	6.213	6.081	5.767	5.600	5.723	5.447	5.185	4.813	4.776	4.482	4.584	4.445	3.888	3.469	3.462	3.663	3.679	3.251	2.736	2.778	2.739	2.593	2.722	2.495	2.501	2.718	3.282	3.705	4.021	4.638	5.108	5.485	5.675	5.713	5.685	5.808	5.665	5.568	5.217	4.663	4.682	4.725	4.537	4.252	4.066	3.226	3.424	2.776	3.081	3.084	2.700	2.678	2.511	2.433	2.423	2.399	2.370	2.297	2.270	2.833	3.417	4.918	5.499	6.567	7.643	8.893	10.091	11.738	12.596	13.352	13.934	14.533	15.020	15.394	15.860	16.599	16.947	16.336	16.453	16.481	16.337	16.357	16.239	16.065	15.899	15.621	15.389	14.888	14.664	14.724	15.029	15.475	16.007	16.380	16.748	17.266	18.089	19.187	19.761	20.189	20.832	21.144	21.375	21.614	22.017	22.346	22.151	22.174	21.930	21.804	21.692	21.785	21.632	21.034	20.496	20.132	19.777	19.216	18.711	18.345	17.867	17.430	17.036	16.674	16.411	16.325	16.497	16.389	16.244	16.140	15.882	15.839	15.955	16.049	16.340	16.311	16.426	16.519	16.635	16.380	16.297	16.550	16.213	15.899	15.829	15.527	15.571	15.862	15.972	16.048	16.323	16.311	16.448	16.701	16.838	17.134	17.453	17.546	17.451	18.683	18.588	18.836	18.868	18.634	18.566	18.474	18.465	18.298	17.819	17.401	16.810	16.507	15.483	15.147	14.546	14.169	13.533	12.863	12.069	11.399	10.881	9.908	8.879	7.730	6.673	4.055	3.231	3.189	3.161	3.187	3.168	5.049	5.984	7.724	9.173	10.347	11.141	11.633	11.818	12.212	12.609	12.962	13.024	13.114	13.193	13.373	13.266	13.206	13.479	13.132	13.064	12.940	12.723	12.695	12.582	12.393	12.354	12.050	11.583	10.753	10.770	10.340	10.355	10.021	9.934	9.719	9.479	9.299	9.317	9.308	9.570	9.864	10.102	10.045	10.008	9.893	9.717	9.647	9.429	9.446	9.251	4.468	-0.574	-2.982	-3.495	-5.933	-6.806	-7.888	-7.861	-7.223	-6.557	-6.351	-5.834	-5.838	-5.525	-5.430	-4.949	-5.443	-5.442	-4.151	-4.419	-4.781	-4.332	-5.041	-4.101	-5.721	-4.606	-4.786	-4.491	-4.900	-4.530	-4.576	-4.924	-5.184	-5.465	-5.279	-5.593	-5.761	-5.690	-5.836	-5.741	-6.138	-5.891	-6.351	-6.199	-6.199	-6.221	-6.514	-6.629	-6.920	-7.060	-7.235	-7.547	-7.885	-7.464	-7.660	-7.886	-8.093	-8.047	-8.668	-8.187	-9.130	-7.767	-7.926	-7.852	-8.538	-7.454	-7.329	-6.374	-6.652	-7.071	-6.804	-6.134	-6.348	-6.367	-6.833	-7.578	-7.411	-7.595	-8.221	-8.051	-8.253	-8.306	-8.175	-8.493	-9.101	-9.086	-8.284	-8.705	-8.725	-8.534	-9.252	-10.042	-8.749	-8.130	-8.481	-11.053	-9.089	-8.100	-7.848	-7.976	-7.896	-6.875	-6.206	-5.781	-5.532	-5.318	-4.313	-3.593	2.738	2.738	2.738	3.407	4.951	6.249	6.429	6.601	6.670	6.468	4.419	2.940	2.791	3.047	3.061	3.108	3.019	2.971	3.032	2.876	2.930	2.861	2.884	2.790	2.826	2.679	2.806	2.801	2.801	2.888	2.959	2.940	2.935	2.925	3.004	2.994	2.970
2.489	2.717	2.561	2.813	3.048	2.664	2.891	2.223	1.977	2.340	2.274	2.335	2.361	2.270	2.320	2.320	2.319	2.230	2.366	2.531	2.519	2.453	2.480	2.483	2.366	2.341	2.293	2.425	2.313	2.194	2.362	2.615	2.387	2.410	2.490	2.737	3.083	3.060	3.294	3.549	3.859	4.013	4.105	4.480	4.928	5.210	5.812	5.922	6.172	6.356	6.689	7.121	7.289	7.523	7.779	7.890	7.860	8.177	8.175	8.210	8.119	8.150	7.995	8.271	8.166	8.202	8.240	8.144	8.409	8.243	8.311	8.294	8.221	7.819	7.602	7.354	7.179	7.035	6.962	6.579	6.245	6.009	5.777	5.662	5.711	5.887	5.548	5.601	5.391	5.220	5.036	5.099	4.696	4.164	3.925	3.799	3.816	3.777	3.795	3.583	3.219	3.176	3.070	3.305	2.863	3.029	3.193	3.542	3.800	4.011	4.754	5.449	5.717	5.799	5.557	5.907	5.823	5.745	5.687	5.427	5.129	4.769	4.808	4.594	4.241	3.865	3.766	2.936	2.767	2.664	2.814	2.802	2.688	2.585	2.501	2.441	2.444	2.197	2.379	2.247	2.465	2.836	4.132	5.190	5.917	7.217	8.392	9.577	11.181	12.702	13.039	14.015	14.586	14.780	15.168	15.611	16.105	16.464	17.073	16.975	16.780	16.685	16.636	16.560	16.406	16.240	16.009	15.754	15.630	15.205	15.017	15.156	15.374	15.813	16.474	16.521	16.889	17.517	18.242	19.036	20.203	20.834	21.207	21.415	21.659	21.954	22.221	22.119	22.065	21.924	21.787	21.597	21.399	21.524	21.263	20.522	20.020	19.664	19.478	18.833	18.423	17.812	17.459	17.600	17.222	16.630	16.707	16.755	16.843	16.697	16.392	16.106	16.226	16.089	16.190	16.409	16.537	16.537	16.685	16.697	16.467	16.382	16.416	16.530	16.276	15.921	15.929	15.872	16.127	16.202	16.296	16.344	16.618	16.654	16.762	16.804	17.371	17.317	17.220	17.269	18.225	18.401	18.447	18.633	18.633	18.384	18.424	17.948	17.951	17.310	17.087	16.506	16.407	15.624	14.962	14.325	13.686	13.221	12.647	12.005	11.273	10.438	9.685	8.913	7.533	5.150	3.444	3.042	3.028	3.157	3.156	3.481	5.671	7.457	8.342	9.573	10.749	11.441	11.779	12.125	12.463	12.666	12.930	13.031	13.181	13.321	13.281	13.506	13.206	13.207	13.002	12.876	12.352	12.632	12.437	12.368	12.404	12.198	11.884	11.241	10.772	10.637	10.385	10.099	10.121	10.201	10.010	10.078	10.247	9.938	9.868	10.041	10.249	10.554	10.508	10.411	10.152	9.932	9.683	9.399	9.283	9.183	9.460	8.596	1.087	-2.655	-3.546	-5.291	-6.381	-8.570	-8.317	-7.390	-7.346	-7.023	-6.630	-6.203	-6.454	-6.048	-6.153	-6.098	-5.764	-6.007	-5.801	-5.719	-5.657	-5.228	-5.196	-5.125	-5.456	-5.614	-5.470	-5.720	-6.055	-5.744	-6.189	-6.373	-6.118	-6.735	-6.696	-6.730	-7.035	-7.256	-7.445	-7.691	-8.509	-7.786	-7.666	-7.789	-8.302	-8.239	-8.614	-8.579	-8.988	-8.516	-8.936	-7.890	-8.195	-7.732	-7.879	-7.452	-7.856	-6.777	-6.533	-5.920	-5.543	-5.297	-5.412	-4.946	-5.139	-4.302	-5.121	-6.072	-5.572	-5.313	-5.035	-5.457	-5.255	-5.775	-5.705	-5.718	-5.707	-5.520	-5.180	-5.671	-5.293	-5.593	-5.350	-6.071	-6.171	-6.455	-6.624	-6.378	-7.032	-8.377	-8.111	-8.429	-8.053	-8.754	-8.012	-8.274	-6.557	-5.987	-5.708	-5.661	-5.450	-5.242	-4.794	-0.660	-0.564	2.738	2.738	3.094	3.269	5.861	6.303	6.505	6.582	6.553	6.616	6.397	5.982	3.047	3.110	3.124	3.049	2.989	3.118	3.055	2.939	2.804	2.893	2.933	2.896	2.886	2.838	2.700	2.837	2.879	2.733	2.948	2.925	2.799	2.892	2.947	2.910	3.041	3.032
2.870	2.247	2.438	2.605	2.762	2.832	1.945	2.462	2.285	2.215	2.287	2.302	2.391	2.401	2.474	2.293	2.305	2.393	2.527	2.557	2.458	2.519	2.408	2.467	2.553	2.385	2.371	2.518	2.361	2.218	2.306	2.537	2.473	2.542	2.881	3.201	3.246	3.447	3.495	3.670	4.087	4.174	4.496	4.673	5.146	5.593	5.935	6.203	6.386	6.637	7.189	7.597	7.507	7.771	7.694	7.769	7.903	7.941	8.048	7.898	7.873	8.007	8.155	8.039	7.900	8.327	8.354	8.261	8.204	8.241	8.252	8.096	7.966	7.612	7.150	6.962	6.723	6.665	6.593	6.191	6.028	5.802	5.831	5.682	5.749	5.429	5.407	5.810	5.931	5.921	5.464	5.287	4.820	4.577	4.420	4.280	4.360	4.141	4.012	3.834	3.670	3.884	3.746	3.963	3.868	3.901	3.670	3.710	3.817	4.164	4.843	5.454	5.847	5.727	5.846	5.559	5.767	5.656	5.520	5.441	5.109	5.064	4.637	4.487	4.077	3.912	3.861	2.886	2.686	2.496	2.707	2.822	2.678	2.757	2.593	2.431	2.393	2.303	2.462	2.479	2.598	2.955	3.652	4.041	5.185	6.315	7.743	9.130	10.032	12.239	13.332	13.640	14.318	14.556	14.793	15.411	15.314	16.742	17.025	17.450	17.139	17.054	16.896	16.834	16.701	16.629	16.349	16.084	15.835	15.506	15.368	15.204	15.232	15.624	16.123	16.499	16.794	17.554	18.261	18.979	19.722	20.451	21.118	21.436	21.646	21.852	22.058	22.180	21.976	21.914	21.793	21.562	21.298	21.132	21.040	20.652	19.932	19.676	19.250	19.043	18.384	17.912	17.497	17.799	17.423	16.954	16.965	16.938	16.983	17.038	16.803	16.459	16.417	16.397	16.528	16.556	16.619	16.870	16.924	16.763	16.668	16.635	16.454	16.412	16.504	16.473	16.012	16.435	16.331	16.399	16.548	16.619	16.667	16.831	16.907	17.257	17.396	17.177	17.306	17.253	18.311	18.182	18.175	18.126	18.172	18.430	17.937	17.490	17.117	17.094	16.702	16.410	15.974	15.296	14.446	13.837	13.297	12.747	12.457	11.912	11.033	10.111	9.505	8.373	5.711	3.886	3.103	3.219	3.140	3.141	3.639	5.856	8.200	8.682	9.056	10.255	11.031	11.616	11.656	12.198	12.509	12.810	12.893	13.172	13.233	13.263	13.522	13.256	13.186	12.966	12.967	12.565	12.508	11.882	12.063	12.003	12.322	12.087	11.322	10.812	10.805	10.455	10.333	10.314	10.447	10.463	10.515	10.364	10.531	10.701	10.813	10.670	10.722	10.786	10.699	10.634	10.461	10.246	9.936	9.452	9.256	10.056	9.171	8.860	8.978	3.839	-1.131	-2.649	-4.898	-5.961	-7.680	-8.981	-9.308	-7.756	-7.433	-7.353	-5.889	-6.250	-7.817	-8.292	-7.355	-8.058	-7.935	-7.539	-7.542	-5.991	-6.144	-5.858	-6.061	-6.059	-6.653	-6.468	-7.081	-7.495	-7.764	-8.135	-8.197	-8.361	-8.871	-8.350	-9.144	-8.642	-10.113	-8.772	-10.369	-8.401	-8.746	-8.178	-8.903	-8.086	-8.293	-7.483	-7.363	-6.685	-6.244	-5.979	-5.767	-5.579	-5.006	-4.899	-4.628	-4.612	-4.645	-5.011	-4.622	-4.615	-4.229	-4.067	-4.093	-3.557	-3.304	-2.912	-1.630	2.669	2.472	2.520	1.793	3.531	-2.824	-3.292	-3.139	-3.110	-2.809	-2.859	-2.306	-3.283	-3.432	-3.510	-3.315	-3.469	-3.535	-3.891	-4.012	-4.370	-5.138	-6.468	-6.571	-5.889	-5.833	-6.015	-5.695	-5.230	-4.643	-4.667	-4.030	-3.476	-0.940	-0.931	2.738	2.738	3.252	4.792	6.471	6.419	6.593	6.637	6.418	6.407	6.366	5.572	3.183	3.033	3.156	3.186	3.072	3.169	3.037	2.956	2.983	3.032	2.920	2.805	2.938	2.950	2.842	2.765	2.917	2.913	2.939	2.880	2.951	2.848	2.893	2.997	2.987	3.011	2.982
2.704	2.795	2.205	2.402	2.942	2.895	2.416	1.813	2.995	3.197	2.238	2.265	2.365	2.521	2.298	2.319	2.558	2.314	2.392	2.360	2.438	2.540	2.513	2.496	2.422	2.446	2.323	2.448	2.408	2.331	2.384	2.601	2.504	2.706	3.312	3.162	3.260	3.625	3.844	3.913	4.259	4.700	4.653	5.067	5.389	5.959	6.301	6.394	6.691	7.079	7.543	7.485	7.571	7.733	7.907	7.924	7.785	8.045	7.950	7.864	7.736	7.719	7.904	8.024	8.190	8.023	8.164	8.363	8.372	8.160	7.945	7.885	7.539	7.321	6.981	6.676	6.429	6.449	6.278	5.986	5.826	5.917	5.930	5.702	5.831	5.557	5.600	5.797	5.843	6.055	6.148	6.112	5.573	5.125	4.774	4.671	4.917	4.935	4.364	4.111	3.947	4.035	4.144	4.098	4.248	4.215	4.256	4.080	4.221	4.368	4.827	5.361	5.855	5.788	5.516	5.380	5.400	5.546	5.349	5.130	5.261	4.902	4.593	4.187	3.840	3.979	3.784	2.886	2.782	2.783	2.712	2.803	2.743	2.625	2.798	2.549	2.465	2.462	2.407	2.424	2.484	2.625	2.794	3.571	4.487	5.464	6.832	8.465	9.784	10.348	12.260	13.164	13.508	13.975	14.589	14.073	15.178	16.817	17.302	17.164	17.581	17.304	17.140	17.041	17.140	16.991	16.801	16.529	16.194	15.742	15.653	15.449	15.381	15.534	16.254	16.751	16.938	18.037	18.521	19.097	19.604	19.725	20.897	21.525	21.687	21.826	21.957	21.941	21.948	21.832	21.688	21.491	21.164	20.990	20.661	20.538	20.035	19.717	19.335	18.866	18.406	17.822	17.801	17.519	17.527	17.342	17.333	17.237	17.134	17.075	17.195	17.019	16.733	16.655	16.721	16.888	16.995	17.051	16.977	16.833	16.862	16.699	16.628	16.447	16.356	16.273	16.832	16.618	16.478	16.534	16.693	16.873	16.875	16.972	17.115	17.533	17.343	17.238	17.058	17.116	17.366	17.886	17.683	17.625	17.579	17.915	17.469	17.094	16.433	16.228	16.161	15.375	15.188	14.500	13.970	13.358	12.852	12.369	12.120	11.706	10.788	9.920	9.124	7.530	4.366	3.539	3.179	3.089	3.143	3.395	4.210	7.747	9.038	9.484	10.163	10.750	11.368	11.602	12.026	12.365	12.738	12.961	13.078	13.229	13.193	13.387	13.460	13.396	13.057	12.906	12.728	12.545	12.260	11.863	11.825	11.198	11.719	11.555	11.307	10.801	10.499	10.514	10.606	10.799	10.994	11.027	10.719	11.032	11.022	11.021	11.431	11.762	11.502	10.999	10.904	10.782	10.632	10.403	10.181	9.654	9.309	9.200	8.997	8.795	8.811	8.308	7.566	0.237	-1.515	-3.224	-5.054	-7.207	-7.785	-8.738	-7.960	-8.245	-7.770	-8.846	-8.854	-9.658	-10.486	-11.177	-9.989	-9.544	-9.053	-7.081	-7.041	-7.437	-7.208	-7.588	-8.253	-8.851	-9.328	-10.424	-9.358	-9.890	-8.432	-8.344	-9.311	-8.289	-8.592	-7.800	-8.117	-7.370	-7.068	-7.130	-6.883	-6.645	-6.309	-5.942	-5.036	-4.901	-4.124	-4.351	-4.154	-4.218	-4.427	-4.144	-4.392	-3.554	-3.305	-3.574	-3.195	-2.679	-2.088	1.770	2.702	2.714	1.170	0.819	2.833	3.207	3.154	3.115	3.138	3.206	4.798	3.915	3.584	3.338	3.377	3.493	3.354	3.408	3.183	3.105	1.253	0.960	-2.179	-2.151	-1.831	-2.334	-2.771	-3.080	-3.491	-5.182	-5.163	-5.037	-4.914	-4.748	-5.025	2.798	2.798	1.246	1.336	0.315	2.738	2.738	2.738	4.655	6.115	6.125	6.469	6.497	6.554	6.543	6.324	6.395	4.899	2.967	3.101	3.227	3.118	3.138	3.184	3.068	3.046	3.053	3.026	3.014	2.934	2.824	2.802	2.831	2.746	2.746	2.790	2.815	2.774	2.877	3.031	2.829	2.947	2.936	2.988	2.925	2.956
2.608	2.870	2.746	2.343	2.509	2.749	2.724	2.286	2.248	2.901	2.056	2.215	2.299	2.241	2.315	2.327	2.308	2.298	2.329	2.399	2.288	2.511	2.602	2.486	2.324	2.537	2.501	2.335	2.429	2.312	2.541	2.582	2.666	3.365	3.100	3.433	3.529	3.698	4.085	4.374	4.520	4.710	5.069	5.392	5.625	5.997	6.502	6.696	6.906	7.492	7.527	7.458	7.554	7.813	7.984	8.013	8.091	7.895	7.749	7.441	7.310	7.406	7.557	7.664	8.008	8.179	7.962	8.135	8.134	7.995	7.794	7.619	7.199	7.038	6.672	6.521	6.349	6.202	5.908	5.902	5.895	5.944	5.877	6.135	6.102	6.026	6.116	6.032	6.142	6.106	5.847	6.058	6.143	6.148	6.087	5.578	5.464	5.391	4.985	5.020	4.742	4.559	4.822	4.876	4.928	4.846	4.443	4.709	4.768	4.833	5.146	5.430	5.731	5.568	5.399	5.309	4.939	5.070	5.026	5.014	4.992	4.727	4.411	4.139	4.227	3.940	3.520	3.394	2.798	2.813	2.648	2.645	2.728	2.822	2.643	2.901	2.721	2.571	2.472	2.518	2.623	2.519	2.519	3.002	3.856	4.748	5.840	7.294	8.895	9.667	10.564	12.317	12.564	13.196	12.600	13.894	14.806	15.936	17.077	17.452	17.657	17.798	17.642	17.609	17.718	17.358	17.171	16.929	16.690	16.326	16.010	15.624	15.472	15.763	15.990	16.677	17.341	18.018	18.488	18.957	18.990	19.642	20.703	21.334	21.628	21.888	21.888	21.881	21.867	21.743	21.643	21.373	21.165	20.944	20.536	20.285	20.111	19.893	19.469	18.997	18.411	18.015	17.958	17.796	17.696	17.779	17.530	17.508	17.294	17.286	17.268	17.296	17.135	16.971	17.008	17.159	17.176	17.125	17.069	17.053	16.954	16.837	16.647	16.429	16.345	16.356	16.392	16.718	16.617	16.702	16.800	16.961	17.017	17.128	17.517	17.357	17.167	17.191	17.078	17.055	16.597	17.328	17.382	17.010	16.932	16.903	16.808	16.491	15.959	15.554	15.157	14.517	14.236	13.850	13.497	12.999	12.574	12.206	11.560	11.022	10.301	9.389	8.618	4.702	3.388	3.296	3.166	3.126	3.228	4.198	5.966	8.703	9.260	10.180	10.765	11.189	11.340	11.944	12.294	12.627	12.743	12.981	13.270	13.218	13.376	13.271	13.172	13.171	13.066	12.662	12.471	12.216	12.171	11.964	11.479	11.398	11.212	10.882	11.086	10.992	10.693	10.378	11.003	11.230	11.185	11.104	11.348	11.251	11.250	11.410	11.757	11.891	11.682	11.593	11.090	10.769	10.658	10.435	10.024	9.835	9.068	8.992	8.895	8.704	8.509	8.136	8.280	9.354	-1.029	-0.242	-2.174	-4.595	-5.724	-6.342	-7.360	-8.527	-9.034	-10.436	-9.650	-9.617	-9.800	-9.099	-8.675	-8.439	-8.191	-8.303	-8.502	-9.626	-8.366	-8.745	-8.988	-10.132	-8.939	-9.537	-7.779	-7.307	-6.197	-6.061	-6.050	-5.630	-5.387	-5.000	-4.873	-4.795	-5.249	-5.400	-5.717	-5.496	-5.078	-4.660	-4.032	-3.707	-3.418	-2.960	-3.092	-2.658	-2.831	-2.007	-1.719	2.827	2.776	2.707	2.618	2.939	3.087	3.118	3.053	3.011	3.101	3.227	3.270	3.244	3.239	3.232	3.206	3.496	5.042	3.659	3.872	3.133	3.103	3.165	3.142	3.205	3.182	3.214	3.341	3.366	3.508	4.969	1.154	1.154	1.154	1.154	1.154	1.154	1.154	2.798	2.798	3.525	1.761	2.798	2.738	2.738	2.738	2.738	2.738	3.016	5.618	6.132	6.315	6.297	6.520	6.500	6.462	6.267	6.422	3.981	3.097	3.054	3.061	3.212	3.163	3.156	3.115	3.089	3.049	3.079	3.036	2.979	2.896	2.860	2.827	2.804	2.736	2.863	2.727	2.802	2.776	2.926	2.967	2.914	2.877	2.935	2.876	2.924	2.984
2.502	2.572	3.546	2.444	2.445	2.479	2.857	2.790	2.314	2.453	2.240	2.431	2.240	2.220	2.429	2.354	2.455	2.477	2.443	2.347	2.457	2.369	2.454	2.408	2.643	2.546	2.570	2.455	2.284	2.283	2.825	2.711	3.173	3.174	3.341	3.528	3.697	4.032	4.197	4.493	4.807	5.097	5.223	5.606	5.917	6.255	6.515	6.793	7.120	7.561	7.317	7.643	7.827	7.884	7.915	7.936	7.880	7.907	7.483	7.145	7.048	7.015	7.191	7.472	7.679	7.742	7.705	7.860	7.831	7.529	7.480	7.314	6.809	6.711	6.566	6.459	6.309	6.010	5.772	5.668	5.852	5.952	6.187	6.327	6.340	6.525	6.533	6.471	6.390	6.280	6.162	6.002	6.126	6.052	6.184	6.280	6.388	6.481	5.726	5.733	5.471	5.803	5.872	6.164	6.025	5.574	5.634	5.510	5.579	5.773	5.694	5.611	5.658	5.527	5.373	5.289	4.983	4.816	4.828	4.841	4.798	4.558	4.406	4.227	4.021	3.891	3.705	3.006	3.399	2.922	2.867	2.817	3.220	3.223	2.764	2.974	3.051	2.721	2.532	2.827	2.540	2.530	2.498	2.459	2.997	3.823	4.768	6.267	7.531	8.946	9.573	10.523	11.576	11.248	12.584	13.857	14.702	15.592	16.789	17.629	17.694	18.088	18.051	18.147	18.160	17.946	17.587	17.291	16.997	16.765	16.421	15.923	15.875	15.875	15.976	16.271	16.816	17.530	18.339	18.625	19.027	19.574	20.417	21.109	21.473	21.813	21.873	21.935	21.870	21.770	21.625	21.368	21.184	20.933	20.418	20.085	20.029	20.134	19.735	19.221	18.782	18.497	18.147	17.985	18.102	18.120	17.899	17.753	17.764	17.506	17.406	17.419	17.459	17.470	17.363	17.436	17.442	17.179	17.266	17.135	17.110	16.878	16.666	16.420	16.403	16.435	16.331	16.433	16.859	16.817	16.942	17.033	17.172	17.391	17.292	17.234	17.092	16.978	16.991	16.727	16.786	17.108	16.798	16.600	16.394	16.135	15.780	15.929	15.198	14.705	14.220	13.988	13.573	13.471	13.010	12.700	12.271	11.731	11.340	10.837	9.971	9.107	6.044	3.637	3.192	3.250	3.168	3.214	3.397	4.424	7.602	9.261	9.720	10.545	11.102	11.396	11.806	12.187	12.520	12.678	12.860	13.064	13.203	13.667	13.360	13.108	13.027	12.972	12.746	12.544	12.241	12.213	11.865	11.949	11.789	11.215	10.842	11.109	10.963	10.829	10.640	11.112	11.231	11.209	11.238	11.310	11.560	11.373	11.513	11.723	12.038	12.065	11.693	11.486	11.337	10.882	10.543	10.385	10.100	9.527	9.146	8.786	8.704	8.593	8.138	7.478	7.703	3.871	3.231	3.423	-1.090	-0.923	-2.442	-4.094	-4.055	-4.600	-5.679	-5.891	-7.081	-7.089	-7.792	-7.091	-8.831	-5.425	-6.146	-9.145	-7.722	-7.927	-7.252	-7.519	-6.478	-6.256	-5.592	-5.295	-4.452	-4.652	-4.341	-4.393	-4.345	-4.315	-3.892	-3.824	-3.779	-3.863	-3.956	-3.904	-3.975	-3.325	-3.074	2.560	2.676	2.729	2.644	2.956	3.018	2.671	3.086	3.057	3.116	3.083	3.070	3.024	3.029	3.087	3.022	3.023	3.172	3.052	3.180	3.232	3.377	3.210	3.232	3.097	3.179	3.673	5.219	5.223	3.710	3.103	3.089	3.104	3.169	3.301	3.242	3.234	3.269	3.235	3.243	5.156	5.326	3.507	3.406	3.744	1.154	1.154	2.954	3.781	2.798	2.929	2.798	2.798	3.247	3.060	3.020	3.026	3.147	3.452	4.126	5.871	6.186	6.259	6.477	6.456	6.324	5.273	3.580	3.203	3.139	3.324	3.284	3.136	3.231	3.073	3.030	3.153	3.051	2.994	2.979	3.005	2.964	2.831	2.786	2.772	2.732	2.847	2.884	2.845	2.800	3.045	3.069	2.964	2.943	2.948	2.821	3.011	3.088
2.476	2.380	2.205	1.769	3.180	2.516	3.060	2.170	2.461	2.356	2.330	2.224	2.273	2.219	2.424	2.420	2.259	2.346	2.452	2.301	2.392	2.492	2.327	2.514	2.625	2.530	2.566	2.422	2.450	2.310	2.353	2.646	3.108	3.174	3.327	3.612	3.855	4.063	4.435	4.659	4.809	5.261	5.616	5.831	6.182	6.568	6.607	7.026	7.310	7.337	7.544	7.633	7.893	7.959	8.081	8.105	7.963	7.782	7.245	6.926	6.813	6.567	6.798	6.820	7.183	7.207	7.453	7.528	7.520	7.171	6.923	7.018	6.684	6.582	6.425	6.472	6.177	5.889	5.694	5.620	5.769	5.700	6.223	6.371	6.620	6.661	6.775	6.701	6.613	6.587	6.362	6.344	6.455	6.297	6.426	6.739	6.567	6.643	6.958	6.867	6.887	6.899	7.158	7.416	7.241	6.895	6.829	6.673	6.495	6.361	6.208	6.162	5.800	5.729	5.531	5.176	5.091	4.853	4.774	4.601	4.450	4.395	4.680	4.318	4.206	3.732	3.945	3.859	3.686	3.861	3.916	3.347	3.842	3.940	3.424	3.397	2.824	3.247	2.581	2.711	2.817	2.570	2.483	2.493	2.484	3.067	4.260	5.029	6.377	7.701	8.793	9.283	10.017	10.766	12.151	13.582	14.572	15.368	16.176	17.458	18.207	18.099	18.385	18.499	18.400	18.176	17.965	17.645	17.315	17.088	16.716	16.453	16.097	15.956	16.055	16.125	16.508	16.983	17.642	18.424	19.029	19.547	20.196	20.789	21.261	21.568	21.905	22.044	21.916	21.753	21.514	21.419	21.217	20.850	20.456	20.152	20.020	19.997	20.006	19.543	18.891	18.570	18.299	18.206	18.346	18.524	18.363	18.180	18.062	17.926	17.723	17.640	17.621	17.742	17.799	17.554	17.467	17.518	17.490	17.391	17.104	16.928	16.655	16.510	16.513	16.564	16.455	16.734	16.792	17.197	17.061	17.016	17.229	17.315	17.114	17.201	16.971	16.876	16.827	16.776	16.537	16.405	16.233	15.640	15.700	15.488	15.219	14.888	14.312	13.861	13.738	13.197	12.809	12.642	12.507	12.164	11.767	11.303	10.948	10.342	9.724	8.075	4.396	3.240	4.007	3.207	3.213	3.301	4.421	7.849	9.499	10.109	10.361	11.042	11.410	11.722	12.042	12.408	12.570	12.818	12.976	13.168	13.542	13.812	13.300	13.302	13.037	12.748	12.678	12.374	12.340	12.064	11.848	11.637	11.634	11.263	10.851	10.760	10.861	11.168	10.840	11.286	11.362	11.371	11.396	11.414	12.037	12.096	11.665	12.073	12.027	11.914	11.483	11.197	10.741	10.925	10.499	9.750	9.929	9.138	8.822	8.546	8.394	8.364	7.990	7.448	6.732	3.706	3.743	3.912	3.730	0.605	-1.080	-0.593	-1.148	-1.303	-2.466	-2.702	-3.480	-3.133	-2.562	-2.904	-2.247	-3.365	-3.851	-5.124	-4.638	-4.145	-3.461	-3.139	-2.995	-3.321	-3.748	-3.596	-3.579	-2.963	-2.664	-2.180	-2.300	-1.740	2.333	2.830	2.734	2.654	2.960	2.913	2.951	2.995	3.132	3.022	3.049	3.100	3.169	3.115	3.127	3.188	3.111	3.084	3.156	3.048	2.915	2.973	2.976	3.006	3.032	3.114	3.168	3.214	3.227	3.268	3.332	3.225	3.245	3.172	3.198	3.685	5.756	5.774	3.967	3.104	3.165	3.170	3.112	3.340	3.307	3.227	3.171	3.294	3.190	3.941	5.747	4.836	3.641	4.010	4.185	4.292	4.092	4.056	2.798	2.798	2.798	3.175	3.334	3.329	3.318	3.138	3.068	3.039	3.381	4.802	6.253	6.522	6.482	4.085	3.182	3.159	3.206	3.253	3.379	3.487	3.394	3.330	3.040	3.124	3.266	2.924	2.923	2.938	2.977	3.009	2.902	2.930	3.016	2.964	2.688	2.873	2.777	2.742	2.822	2.969	3.076	2.945	2.990	2.987	2.952	3.019	3.121
2.553	2.471	2.518	2.391	2.016	2.685	2.363	2.297	2.369	2.407	2.456	2.409	2.336	2.324	2.382	2.407	2.344	2.279	2.318	2.290	2.358	2.402	2.332	2.390	2.465	2.519	2.504	2.462	2.499	2.404	2.723	2.969	3.265	3.358	3.525	3.610	3.964	4.263	4.455	4.794	5.179	5.468	5.744	6.182	6.363	6.652	6.973	7.077	7.226	7.481	7.625	7.501	7.787	7.876	7.968	8.096	8.272	7.999	7.573	7.037	6.674	6.497	6.520	6.703	6.597	6.845	7.108	7.015	7.029	6.765	6.883	6.655	6.634	6.704	6.690	6.410	6.019	5.787	5.651	5.569	5.607	5.912	6.237	6.273	6.596	6.789	6.942	6.809	6.845	6.773	6.679	6.710	6.559	6.785	6.783	7.310	7.036	7.097	7.099	7.333	7.858	8.196	8.304	8.583	8.764	8.781	8.578	8.047	7.560	7.169	6.956	6.601	6.357	5.849	5.562	5.305	5.250	5.080	4.902	4.483	4.376	4.430	4.285	4.212	4.175	4.194	3.925	4.106	4.393	4.375	4.494	4.310	4.248	4.057	4.123	4.030	3.843	3.202	3.464	2.711	2.649	2.615	2.519	2.473	2.502	2.725	3.900	4.478	5.370	6.486	7.405	8.793	9.521	10.499	12.060	13.111	14.289	15.082	15.703	16.793	17.972	18.490	18.739	18.837	18.719	18.472	18.276	18.022	17.605	17.276	17.100	16.903	16.406	16.310	16.218	16.394	16.406	16.602	17.160	17.919	18.503	19.195	19.787	20.426	20.981	21.281	21.636	21.894	21.950	21.890	21.676	21.555	21.210	20.953	20.499	20.300	20.096	19.910	20.070	19.718	19.524	18.979	18.689	18.569	18.509	18.702	18.838	18.567	18.316	18.167	18.078	17.879	17.917	17.924	17.655	17.643	17.535	17.715	17.547	17.437	17.198	16.920	16.734	16.656	16.701	16.546	16.787	16.969	17.013	17.027	17.433	17.317	17.149	17.278	17.058	16.959	16.898	16.747	16.593	16.516	16.321	15.909	15.762	15.885	15.339	15.492	14.807	13.685	13.199	13.063	12.710	12.360	11.933	11.707	11.670	11.614	11.235	10.893	10.551	9.976	9.521	5.267	3.492	3.179	2.988	3.226	3.238	3.283	6.494	9.621	10.897	10.848	10.863	11.287	11.733	12.100	12.261	12.478	12.774	13.017	13.302	13.993	14.094	14.075	13.565	13.270	12.966	12.673	12.388	12.343	12.058	11.944	11.808	11.721	11.205	11.188	11.103	11.052	11.035	11.267	11.661	11.679	11.209	11.478	11.728	11.991	12.131	12.005	12.198	12.008	11.848	11.727	11.151	10.630	10.622	10.617	9.981	9.642	9.120	8.920	8.632	8.369	8.197	8.039	7.839	7.643	3.995	3.394	3.405	3.405	3.515	3.717	2.813	0.858	-1.080	-1.080	-1.080	-1.080	0.767	1.000	2.031	1.736	-0.543	8.165	7.466	4.470	-2.477	-3.442	-1.382	2.208	2.368	2.522	3.116	3.370	3.028	3.086	3.030	3.030	3.047	3.015	3.194	3.110	2.810	2.847	2.900	2.922	2.884	2.924	2.891	3.188	2.997	3.115	3.099	3.057	3.095	3.225	3.231	3.031	3.046	3.083	3.009	3.052	3.081	3.097	3.208	3.243	3.251	3.253	3.293	3.896	3.503	3.391	3.187	3.279	3.261	3.758	6.236	5.934	4.052	3.464	3.718	3.882	3.572	3.907	3.455	3.522	3.487	3.610	4.088	5.342	6.578	6.317	5.610	4.798	5.083	4.614	4.195	4.121	2.798	2.798	3.065	3.069	3.095	3.016	3.130	3.024	2.968	2.892	2.889	3.702	5.687	4.163	3.053	3.014	2.995	3.164	3.249	3.232	3.271	3.292	3.180	2.989	3.242	3.188	3.159	2.985	2.992	2.938	2.969	3.019	2.973	3.028	2.978	2.886	2.730	2.872	2.802	2.953	2.945	3.017	3.045	2.963	2.915	2.995	2.976	3.064	3.137
2.472	2.503	2.516	2.702	2.505	2.645	2.422	2.388	2.379	2.454	2.524	2.343	2.597	2.421	2.359	2.256	2.323	2.429	2.215	2.285	2.450	2.318	2.419	2.419	2.325	2.419	2.375	2.299	2.262	2.449	2.503	2.920	2.760	3.256	3.424	3.823	4.143	4.303	4.621	4.982	5.351	5.652	5.733	6.148	6.392	6.655	7.043	7.054	7.308	7.356	7.419	7.543	7.536	7.645	7.942	8.089	8.080	7.832	7.514	7.013	6.879	6.462	6.452	6.266	6.218	6.634	6.750	6.758	6.496	6.511	6.569	6.615	6.550	6.325	6.415	6.197	6.072	5.673	5.506	5.344	5.599	5.674	6.125	6.442	6.442	6.646	6.942	6.784	6.917	6.895	6.957	6.921	6.966	7.154	7.458	7.373	7.705	7.699	7.511	7.751	8.240	8.672	9.467	9.749	10.094	10.371	10.155	9.606	8.775	8.002	7.403	7.139	6.681	6.148	5.665	5.466	5.213	5.021	4.775	4.649	4.471	4.408	4.582	4.276	4.275	4.269	4.356	4.388	4.756	5.053	5.064	4.833	4.708	4.680	4.649	4.247	3.955	3.701	2.926	3.167	2.777	2.686	2.526	2.485	2.529	2.482	2.967	3.829	4.381	5.325	7.025	7.646	8.915	9.888	11.352	12.606	13.893	14.680	15.308	16.175	17.087	18.034	18.690	19.178	19.296	18.896	18.431	18.196	17.826	17.614	17.236	16.838	16.832	16.683	16.574	16.465	16.507	16.724	17.072	17.643	18.174	18.812	19.380	20.147	20.693	21.102	21.423	21.600	21.784	21.903	21.913	21.740	21.442	21.002	20.779	20.570	20.295	20.169	19.997	20.095	19.831	19.312	18.982	18.868	18.863	18.983	19.244	18.904	18.761	18.558	18.423	18.165	18.311	18.179	17.876	17.695	17.821	17.803	17.614	17.381	17.340	17.098	16.926	16.929	16.727	16.845	16.988	17.112	17.237	17.213	17.157	17.218	17.465	17.087	17.004	16.813	16.784	16.621	16.455	16.168	15.822	15.466	15.751	15.533	15.220	14.539	13.662	12.857	12.365	12.062	11.717	11.376	11.241	11.033	10.718	10.734	10.639	10.343	10.066	9.515	9.059	4.758	3.286	3.207	3.178	3.322	3.377	5.287	9.399	11.071	11.304	11.262	11.428	11.730	11.989	12.329	12.593	12.727	13.037	13.343	14.201	14.245	14.203	14.182	14.114	13.356	13.041	12.640	12.400	12.197	12.145	11.909	11.809	11.455	11.304	11.255	11.284	11.419	11.637	11.780	11.871	11.962	12.024	11.831	11.834	12.133	12.186	12.212	12.217	12.056	11.853	11.299	10.791	10.535	10.782	10.387	9.946	9.832	9.328	9.189	8.687	8.163	8.089	7.680	7.662	7.227	3.626	3.323	3.371	3.170	2.890	3.337	3.880	3.910	3.594	3.620	3.103	2.995	3.629	4.560	6.524	8.622	9.310	9.513	10.132	10.243	8.483	9.002	6.145	3.649	3.600	3.487	3.586	3.472	3.593	3.480	3.251	3.101	3.110	3.147	3.236	3.151	2.929	2.956	2.964	2.954	2.897	2.929	2.951	2.963	2.968	3.035	3.128	3.075	3.230	2.996	3.198	3.115	3.122	3.054	3.091	3.060	3.096	3.371	3.278	3.242	3.417	3.417	3.974	5.092	4.890	4.182	4.056	3.976	3.566	3.672	7.621	6.353	10.098	10.901	11.317	9.673	8.646	7.848	6.129	6.408	9.329	11.476	12.451	12.484	12.717	6.924	12.285	12.267	6.400	6.285	5.199	4.425	2.798	2.798	3.264	3.068	3.220	2.720	3.376	3.074	3.047	3.038	3.110	3.142	2.960	2.810	2.933	3.112	3.009	3.262	3.100	3.087	2.988	3.428	3.494	3.047	3.234	3.141	3.141	3.062	2.991	3.026	2.962	2.933	3.032	3.016	3.097	3.155	3.073	2.983	3.078	2.841	2.921	3.069	3.223	3.034	2.960	3.044	3.150	3.097	3.129
2.459	2.556	2.516	2.640	2.784	2.403	2.401	2.386	2.471	2.487	2.640	2.388	2.567	2.527	2.411	2.294	2.385	2.339	2.370	2.269	2.323	2.346	2.364	2.395	2.321	2.292	2.255	2.218	2.298	2.300	2.415	2.442	2.948	2.879	3.231	3.723	4.313	4.501	4.724	5.258	5.325	5.559	6.043	6.097	6.334	6.316	6.696	6.754	7.109	7.353	7.249	7.114	7.344	7.412	7.738	7.839	7.802	7.617	7.246	6.941	6.447	6.156	6.191	5.710	6.033	6.013	6.359	6.035	6.064	6.151	6.298	6.327	6.275	6.163	6.068	5.680	5.723	5.670	5.476	5.268	5.350	5.551	5.673	6.046	6.168	6.452	6.689	6.837	6.971	6.974	7.017	6.842	7.140	6.901	7.430	7.317	7.804	7.780	7.685	8.017	8.690	9.286	9.886	10.885	11.249	11.579	11.429	11.004	10.241	9.228	8.251	7.512	6.938	6.505	6.232	5.937	5.629	5.245	5.046	4.788	4.721	4.606	4.627	4.482	4.425	4.356	4.626	5.091	5.506	5.581	5.456	5.248	5.155	5.159	5.066	4.688	4.219	3.826	3.718	3.121	2.742	2.771	2.622	2.464	2.443	2.404	2.544	3.008	3.821	5.649	6.377	6.777	8.142	9.337	10.326	11.666	13.136	14.102	14.933	15.781	16.667	17.503	18.208	18.634	19.074	19.571	18.851	18.243	18.009	17.979	17.502	17.324	17.080	17.179	16.795	16.590	16.726	16.974	17.269	17.490	17.874	18.304	19.146	19.755	20.387	20.860	21.185	21.496	21.601	21.797	21.858	21.820	21.771	21.603	21.157	20.784	20.665	20.433	20.110	20.276	19.888	19.795	19.531	19.221	19.273	19.279	19.479	19.416	19.100	18.829	18.782	18.522	18.419	18.569	18.304	18.045	17.953	17.892	17.633	17.496	17.297	17.377	17.296	17.134	17.086	17.035	17.175	17.196	17.239	17.199	17.116	17.004	16.941	17.073	16.841	16.563	16.539	16.358	16.002	15.747	15.616	15.097	15.635	14.852	14.417	13.825	13.285	12.518	11.687	11.273	10.962	10.522	10.464	10.489	10.014	9.929	9.779	9.619	9.581	8.648	5.885	3.463	3.139	3.179	3.185	3.308	5.736	9.190	10.775	11.141	11.241	11.634	11.941	12.200	12.309	12.502	12.816	12.997	13.309	14.092	14.269	14.299	14.270	14.212	14.197	14.045	13.131	12.853	12.423	12.310	12.102	11.968	11.604	11.448	11.293	11.327	11.312	11.788	12.260	12.106	12.108	12.156	12.035	12.025	12.290	11.990	12.502	12.291	12.202	11.993	11.619	10.823	10.684	10.649	10.938	10.743	9.893	9.768	9.433	9.217	8.249	7.924	7.705	7.693	7.677	3.810	3.337	3.253	3.264	3.241	2.783	2.799	2.994	3.204	3.512	3.918	3.895	3.955	3.985	5.639	8.707	9.340	9.828	9.649	9.650	9.748	10.535	10.270	10.100	9.216	6.488	5.758	4.854	6.610	9.032	8.466	7.042	5.781	4.397	3.638	3.982	3.278	3.188	3.064	3.083	3.079	2.973	2.972	2.924	2.942	3.169	3.090	3.166	3.142	3.217	3.187	3.139	3.152	3.065	3.073	3.080	3.152	3.303	3.400	3.573	4.088	4.980	5.777	8.900	10.330	11.714	11.647	11.801	11.742	11.471	8.833	8.545	6.103	12.322	12.708	12.900	13.220	12.790	12.228	11.878	11.993	12.319	12.831	13.006	13.093	13.128	12.217	12.901	12.719	9.287	11.650	6.628	5.024	3.355	3.296	3.298	3.290	2.933	2.783	2.688	3.273	3.043	2.943	2.875	2.998	3.004	3.116	3.029	2.913	3.236	3.129	2.969	3.103	3.103	3.226	3.519	3.081	3.165	3.120	3.074	3.087	2.968	3.226	3.180	3.250	3.225	3.219	3.573	3.429	3.380	3.493	3.438	3.049	3.176	3.003	3.349	3.425	3.179	3.617	3.323	3.298	3.428
2.442	2.570	2.473	2.762	2.416	2.353	2.437	2.488	2.521	2.503	2.648	2.390	2.545	2.490	2.374	2.393	2.366	2.300	2.321	2.338	2.176	2.309	2.323	2.183	2.254	2.158	2.161	2.139	2.282	2.325	2.315	2.581	3.041	2.881	3.084	3.559	4.273	4.645	5.098	5.100	5.077	5.575	6.031	6.202	6.411	6.015	6.205	6.155	6.664	7.072	6.985	7.042	7.032	7.071	7.336	7.577	7.532	7.328	6.878	6.262	5.845	5.860	5.609	5.362	5.622	5.694	5.542	5.641	5.756	5.644	5.913	5.895	5.754	5.656	5.420	5.302	5.214	5.400	5.186	5.284	5.183	5.204	5.591	5.705	6.000	6.163	6.241	6.431	6.647	7.036	7.278	7.146	7.181	6.874	7.037	7.119	7.416	7.629	7.815	8.278	8.695	9.406	10.130	11.214	12.571	12.777	12.623	12.110	11.420	10.427	9.354	8.290	7.365	6.974	6.634	6.497	6.146	5.981	5.511	5.136	4.835	4.900	4.713	4.505	4.636	4.665	4.888	5.385	6.032	6.213	5.698	5.478	5.458	5.415	5.177	4.937	4.535	3.959	4.049	3.006	2.836	2.730	2.751	2.522	2.484	2.535	2.462	3.200	4.105	4.965	5.378	6.008	7.240	8.676	9.543	10.591	12.055	13.266	14.457	15.589	16.437	17.239	18.070	18.578	18.982	19.085	19.142	18.715	18.257	18.023	17.973	17.719	17.462	17.238	17.088	16.988	17.033	17.151	17.272	17.386	17.655	18.121	18.750	19.545	20.018	20.492	20.926	21.297	21.547	21.696	21.725	21.771	21.706	21.703	21.524	21.303	21.133	20.730	20.604	20.497	20.100	19.969	19.912	19.889	19.618	19.701	19.775	19.916	19.518	19.226	19.012	18.848	18.699	18.530	18.647	18.488	18.207	17.962	17.768	17.539	17.483	17.545	17.488	17.314	17.466	17.384	17.338	17.335	17.259	17.169	17.101	16.948	16.824	16.525	16.609	16.395	16.178	15.862	15.681	15.276	15.035	14.835	14.559	14.175	13.842	13.458	12.955	12.221	11.314	10.781	10.369	10.170	9.669	8.927	8.952	8.967	8.546	8.373	8.309	7.522	3.692	3.319	3.123	3.235	3.245	4.137	9.001	9.210	11.202	11.310	11.564	11.933	12.380	12.387	12.694	12.840	12.883	13.336	13.965	14.175	14.303	14.307	14.265	14.245	14.177	14.170	13.791	13.016	12.870	12.394	12.135	11.911	11.682	11.512	11.477	11.596	11.804	11.760	12.237	12.360	12.246	12.240	12.283	12.229	12.110	12.289	12.438	12.284	12.313	11.875	11.832	11.310	11.048	10.932	10.891	10.604	10.175	9.602	9.379	8.687	7.880	7.638	7.197	7.303	7.408	3.804	3.343	3.205	3.241	3.048	3.050	2.815	3.181	2.763	2.826	2.958	3.201	3.500	4.580	8.072	8.845	9.368	9.581	9.731	9.629	9.875	10.357	10.294	10.463	10.578	10.723	10.688	10.382	10.444	10.699	10.902	10.858	10.878	11.054	10.781	10.656	10.294	8.881	6.143	5.002	4.919	3.968	3.127	3.478	3.410	3.304	3.233	3.159	3.276	3.545	3.639	3.921	3.219	3.344	3.134	3.203	3.239	3.468	4.005	8.242	10.439	10.554	10.641	10.933	11.229	11.794	11.689	11.919	11.283	11.679	11.566	11.043	6.238	12.026	12.870	12.777	13.167	12.904	12.779	12.710	12.344	12.576	13.110	13.016	13.226	13.261	13.280	8.532	12.990	12.669	12.632	11.843	7.811	4.866	3.729	3.396	3.081	3.383	3.023	3.113	2.942	2.930	3.016	3.079	3.071	3.325	3.153	3.019	2.993	3.092	3.054	3.115	3.094	2.958	2.999	3.064	3.330	3.087	2.968	2.996	3.219	3.405	3.359	3.673	3.735	3.936	3.968	3.801	3.743	3.731	3.284	3.238	3.159	3.153	3.217	3.191	3.190	3.380	3.177	3.755	3.841	3.558
