ncols         324
nrows         31
xllcorner     380877.130607
yllcorner     6550549.77495
cellsize      20
NODATA_value  -9999
-5.564753 -5.523911 -5.474919 -5.438105 -5.421508 -5.417443 -5.410665 -5.391358 -5.360471 -5.311131 -5.271499 -5.235367 -5.207447 -5.196718 -5.162449 -5.157579 -5.151155 -5.105626 -5.100595 -5.090646 -5.06578 -5.001781 -4.939329 -4.913758 -4.89317 -4.867691 -4.839539 -4.812271 -4.775508 -4.692224 -4.654539 -4.598624 -4.577046 -4.569015 -4.522667 -4.479877 -4.42398 -4.36844 -4.320074 -4.242564 -4.183552 -4.157524 -4.103014 -4.050285 -3.994249 -3.925668 -3.834445 -3.785755 -3.756355 -3.700919 -3.638826 -3.555774 -3.489379 -3.41251 -3.382588 -3.351042 -3.295214 -3.217844 -3.169016 -3.145807 -3.127625 -3.069058 -2.994747 -2.941812 -2.913416 -2.90709 -2.856746 -2.796168 -2.736663 -2.690983 -2.641094 -2.563284 -2.513753 -2.470738 -2.444462 -2.419826 -2.373011 -2.340141 -2.326168 -2.334511 -2.329387 -2.331318 -2.327548 -2.340457 -2.366252 -2.376041 -2.340252 -2.311577 -2.298617 -1.258035 -1.220365 -1.09136 -1.044921 -0.9592426 -1.083433 -1.017361 -0.9577553 -0.893874 -0.9572994 -0.8805188 -0.6425719 0.7771706 9.529362 10.03723 10.55557 14.05432 14.45878 14.79247 14.54227 14.58776 14.97957 15.33716 15.71855 15.9305 16.20484 15.63375 15.38589 14.74601 14.22483 13.77846 13.43629 13.40654 13.49588 13.62373 13.55453 13.71499 13.85666 14.28588 14.69287 15.77367 16.20675 16.26202 16.47157 16.60446 16.61624 16.6233 17.04397 17.3062 16.85771 16.97175 17.28509 17.06819 16.96631 17.06322 17.35942 17.56118 17.53481 17.41481 17.4628 17.74644 17.82388 17.90836 17.88001 17.98238 18.20108 18.60724 18.34886 18.48564 18.78857 18.67439 18.6228 18.52626 18.77966 18.55733 18.2479 18.02258 17.61246 17.50089 17.31277 16.63787 16.16031 15.99074 15.57895 15.40599 15.27542 14.60647 14.22635 13.95835 13.77525 13.35145 13.35951 13.24836 13.17841 12.87187 12.3386 11.96205 11.66422 10.59038 10.1413 9.315044 8.901875 8.600432 8.231152 8.185013 7.984982 7.746289 7.973753 7.963701 7.582959 7.135556 7.199054 6.963862 6.453339 6.479251 6.530742 6.995173 6.405485 6.61888 6.524326 6.743301 6.71826 6.718884 6.815789 7.020127 7.331937 7.547045 7.547266 7.43498 7.534473 7.663577 8.480924 8.027949 7.873108 8.304939 8.516478 8.415967 7.936508 7.459771 7.283365 7.695069 7.939202 7.963552 8.224377 8.216158 8.057665 8.049725 7.977463 8.225039 7.812662 7.846233 7.874774 7.9982 8.117914 8.392392 8.496539 8.580805 8.762609 8.867699 9.184493 9.205381 9.279774 9.370123 9.320866 9.507171 9.488496 9.8396 10.59651 10.76829 10.20468 9.511841 9.448044 9.935402 9.633276 9.402528 9.158965 8.630015 9.042291 8.889814 8.985186 8.567598 8.805261 8.479185 8.297966 8.232036 7.730891 7.816621 7.425555 7.665249 7.61352 7.381872 7.597264 7.978057 8.162543 8.366645 8.746927 9.191139 9.565859 9.614629 9.952739 10.13039 9.861204 9.794239 9.844918 9.788774 9.649721 9.495427 9.184625 9.303404 9.524947 9.337004 9.530753 9.58242 9.608753 9.668841 10.13238 10.41617 10.45723 10.79174 10.999 11.20073 11.47222 12.01844 12.44032 12.55375 12.70779 13.03454 13.36343 13.4826 13.55714 13.65152 13.96465 13.73026 13.63192 13.65363
-5.607561 -5.558649 -5.514267 -5.459637 -5.436229 -5.426097 -5.412546 -5.39994 -5.384651 -5.341282 -5.312457 -5.284425 -5.259823 -5.248567 -5.236213 -5.194681 -5.186654 -5.178741 -5.152877 -5.135763 -5.109506 -5.075938 -5.010316 -4.96632 -4.918003 -4.918324 -4.891002 -4.868954 -4.830935 -4.748294 -4.702444 -4.670619 -4.654719 -4.640138 -4.611687 -4.556 -4.48801 -4.416591 -4.355766 -4.312087 -4.258855 -4.226726 -4.177446 -4.119553 -4.047662 -3.980177 -3.883243 -3.82273 -3.801132 -3.759245 -3.696753 -3.634545 -3.533826 -3.48789 -3.41508 -3.365672 -3.326826 -3.282287 -3.198781 -3.167473 -3.138457 -3.077653 -3.007334 -2.95005 -2.912697 -2.908656 -2.88453 -2.815366 -2.761143 -2.72116 -2.674357 -2.618267 -2.561774 -2.501659 -2.468569 -2.422955 -2.370957 -2.334852 -2.32069 -2.331984 -2.327556 -2.324424 -2.320218 -2.319887 -2.327646 -2.322857 -2.318315 -2.338981 -2.362133 -1.280041 -1.193604 -1.099474 -1.116165 -1.006715 -1.02839 -1.070875 -0.9698314 -1.025843 -1.057571 -0.8115677 -0.2805735 4.761846 8.800002 10.93437 11.61552 13.11266 14.80588 15.2723 15.07216 15.39853 15.38549 15.74936 16.0505 15.95373 16.00975 15.98125 15.45161 15.07636 14.80599 14.13183 13.45332 13.34181 13.25715 13.28829 13.00594 13.07683 13.49909 14.41986 15.14198 15.50672 15.81444 16.25973 16.20327 16.44555 16.58976 16.62114 16.75551 17.1138 16.88612 16.56276 16.6575 16.57651 16.82131 16.78 17.32915 16.99278 17.14359 17.13503 17.39146 17.37381 17.53552 17.63821 17.62535 18.01945 17.87483 18.06974 18.00103 18.0886 18.28865 18.35906 18.3526 18.36306 18.41879 18.07943 18.09413 17.86629 17.02727 16.69999 17.00854 16.55813 16.22986 15.83119 15.73143 15.38772 15.10855 14.33627 14.17848 13.95963 13.79161 13.60401 12.80424 12.98034 12.99488 12.39508 12.06306 11.53943 11.07373 10.57859 9.651221 9.200889 8.905632 8.09646 8.066009 7.815341 7.661284 7.776258 7.678638 7.55899 6.938313 6.786039 6.667071 6.445858 6.433639 6.197296 6.687033 6.489979 6.655038 6.884914 6.624156 6.777514 6.636017 6.767801 6.800882 6.943012 7.053619 7.316065 7.508126 7.448503 7.627045 7.80874 8.385047 7.920296 7.974736 8.039176 8.096869 7.950035 7.709671 7.341136 7.339642 7.50771 7.666317 7.889324 8.42922 8.189901 8.159278 8.130033 8.09188 8.388387 7.972322 8.054923 7.516756 7.936619 7.965521 8.213617 8.312965 8.783547 8.85719 8.36802 8.685674 8.708797 8.934284 8.778661 9.219055 9.108661 9.404299 9.609857 10.09946 10.1793 10.21645 9.156528 8.945749 8.925264 9.297321 8.850752 8.743685 8.84743 8.651119 8.626279 8.557248 8.437693 8.404075 8.100125 8.029289 7.746883 7.397862 7.31371 7.301952 7.267048 6.969187 7.184762 7.564559 8.016327 8.178214 8.653967 9.265193 10.23927 10.33129 10.28338 10.43034 10.25559 10.23924 9.741206 9.682049 9.542836 9.349753 9.147039 8.873278 9.299905 9.142975 9.348971 9.497151 9.647149 9.621908 9.602619 10.58889 10.41778 10.6834 10.92079 11.12301 11.25979 11.616 12.04678 12.14388 12.42952 12.6329 12.98567 13.22367 13.36518 13.53463 13.51543 13.63038 13.63395 13.63806 13.61807
-5.649099 -5.603865 -5.547999 -5.509977 -5.482183 -5.466648 -5.459772 -5.441968 -5.410519 -5.395762 -5.35518 -5.333786 -5.318828 -5.296974 -5.277308 -5.229883 -5.218847 -5.218925 -5.193899 -5.179739 -5.151602 -5.111592 -5.053807 -5.001695 -4.965696 -4.935524 -4.93146 -4.918689 -4.867034 -4.814152 -4.738023 -4.712152 -4.687913 -4.6733 -4.671192 -4.625418 -4.538559 -4.453518 -4.379575 -4.326286 -4.296789 -4.278977 -4.248205 -4.169775 -4.083332 -4.000017 -3.922998 -3.877344 -3.838988 -3.817084 -3.748522 -3.679107 -3.616236 -3.559717 -3.455175 -3.423939 -3.386228 -3.342124 -3.270812 -3.20488 -3.171599 -3.101704 -3.031574 -2.975802 -2.931168 -2.915064 -2.879396 -2.829084 -2.756043 -2.721346 -2.70612 -2.671187 -2.598246 -2.549101 -2.489408 -2.451643 -2.397233 -2.355293 -2.34165 -2.3406 -2.323895 -2.315163 -2.310199 -2.311946 -2.306483 -2.300468 -2.302999 -2.312417 -2.319 -2.255339 -1.224547 -1.092325 -1.056 -0.9769791 -1.061583 -0.925271 -0.9565765 -0.8794802 -0.9415283 -1.007284 -0.7460901 -0.5434376 8.478264 11.75188 15.01954 15.37551 15.25989 15.29528 15.82402 15.89241 16.04754 16.00589 16.34638 16.5267 16.47513 16.24665 15.89483 15.20761 14.73402 14.22462 13.28157 12.71602 12.92644 12.42104 12.55789 12.77509 12.99502 14.38702 14.9728 15.35294 15.89048 16.0052 16.03395 16.3377 16.4069 16.38149 16.31308 16.36654 16.70977 16.37608 16.45087 16.29375 16.55728 16.68287 16.86733 16.69268 16.82281 16.96695 17.35285 17.10179 17.31401 17.45627 17.34889 18.23089 17.89034 17.96663 18.31089 18.15668 18.11624 18.12613 18.13023 18.16752 18.27136 17.86724 17.80125 17.5339 16.85118 16.5155 16.31306 16.0645 16.06419 15.82797 15.94366 15.30313 14.65092 14.36615 13.97071 13.8943 13.85739 13.69256 12.81855 12.51766 12.58018 11.72887 11.49449 11.20822 10.76734 10.05439 9.2546 8.944646 8.528129 7.917862 8.031064 8.019867 7.554972 7.380007 7.311625 6.66615 6.639359 6.586393 6.383183 6.195828 6.24763 6.284252 6.557344 6.391516 6.8862 6.659962 6.718035 6.80698 6.694655 6.59995 6.724583 6.771573 6.7964 6.947696 7.052992 7.295894 7.677273 7.675309 7.739966 8.007969 7.919876 7.966492 7.846407 7.715453 7.265869 7.051779 7.116834 7.231289 7.593965 7.720012 7.725243 7.429259 8.123381 8.612958 8.363056 8.261386 8.188003 8.357749 7.963799 8.08587 7.981794 8.204579 7.85969 8.857912 8.702666 8.260666 8.101499 8.223531 8.813581 8.824929 8.926172 9.204142 9.13442 9.09185 9.46606 9.559962 10.07927 9.422942 9.267968 8.819862 8.490634 9.436698 8.511043 8.601572 8.296522 8.180702 8.322027 8.180923 8.213596 7.855715 7.876575 7.695833 7.572298 7.090532 7.140193 6.789018 6.877907 7.169143 7.617519 8.174431 8.621495 9.590976 9.927219 10.1161 10.2735 10.35051 10.31017 10.4927 10.38025 9.608631 9.427626 9.278463 9.159776 8.8855 9.375873 8.731297 8.920873 8.780783 8.869033 9.332933 9.732286 10.42656 10.39532 10.53274 10.79348 11.0603 11.22214 11.40422 11.936 11.94315 11.99986 12.21221 12.56325 12.9008 13.26709 13.08986 13.22593 13.3828 13.39318 13.46605 13.43461 13.50456
-5.668259 -5.625937 -5.581036 -5.548958 -5.524008 -5.506891 -5.49553 -5.472989 -5.465892 -5.435417 -5.430288 -5.421263 -5.398891 -5.342702 -5.316765 -5.289972 -5.249079 -5.239401 -5.235044 -5.216952 -5.188669 -5.144064 -5.079818 -5.018531 -4.972255 -4.939925 -4.937672 -4.932096 -4.891485 -4.841168 -4.778701 -4.730912 -4.698048 -4.6839 -4.683786 -4.65214 -4.566428 -4.479876 -4.404109 -4.338592 -4.30028 -4.294969 -4.27619 -4.197635 -4.108065 -4.009303 -3.926522 -3.871057 -3.854667 -3.844462 -3.789331 -3.717664 -3.652534 -3.60211 -3.530213 -3.475438 -3.437422 -3.387283 -3.331784 -3.270502 -3.212226 -3.157318 -3.096521 -3.038436 -2.965659 -2.933068 -2.87867 -2.824042 -2.748179 -2.713712 -2.708929 -2.68501 -2.619847 -2.566765 -2.524289 -2.473211 -2.425649 -2.391657 -2.360438 -2.350356 -2.328655 -2.31714 -2.309509 -2.30672 -2.291773 -2.279977 -2.277228 -2.269317 -2.25163 -2.21796 -1.131991 -1.107286 -1.069079 -1.070104 -1.014871 -1.006905 -1.046172 -0.9421276 -0.9069179 -0.9994661 -0.9749871 -0.6635303 0.05407918 14.1443 15.56729 15.37093 15.31657 15.35391 16.19934 16.24724 16.32929 16.1399 16.39144 16.59758 16.22886 16.16508 15.2809 14.69076 14.51714 13.79226 13.03277 12.74317 12.41109 12.31633 12.58867 12.3235 12.69686 14.11205 14.34532 15.15734 15.53069 15.8269 16.02672 16.41402 16.0027 16.08015 16.02671 16.08855 16.46216 16.30207 16.16516 16.9412 16.00621 16.97643 16.28155 16.48184 16.75347 16.80345 17.21443 16.9774 17.28189 17.68961 17.24906 17.49461 17.51123 18.02779 18.22785 17.96883 18.01546 18.08275 18.06571 17.86097 17.74503 17.57801 17.35943 17.16459 16.4762 16.59908 16.23285 16.0131 15.58111 15.3286 15.01464 14.7993 14.84315 14.54931 14.23362 13.84754 13.27245 13.27844 13.16012 12.71636 12.65889 11.49228 11.67033 11.15108 10.15174 9.579084 9.211235 8.816353 8.161987 8.235869 7.93708 7.718469 7.523487 7.174728 7.104358 6.76171 6.794289 6.528642 6.38825 6.456517 6.398284 6.401668 6.667841 6.210057 6.726855 6.614863 6.724769 6.803205 6.80365 6.611079 6.61461 6.907266 6.780655 6.802093 6.918544 7.298509 7.340409 7.549899 7.252515 7.873889 7.921155 7.829772 7.707323 7.422429 7.153361 6.915815 6.777062 7.176994 7.512259 7.778055 7.880127 7.898705 8.305322 8.147762 8.119451 7.833524 7.716467 7.842094 7.565179 7.446342 7.749398 7.742769 7.952325 8.499443 8.042945 8.134291 7.834901 8.487783 8.110001 8.180073 8.917253 8.69395 8.950108 8.790356 9.105966 9.523615 9.691971 9.171253 9.229112 8.823479 8.314307 8.204472 7.995673 8.286518 8.239252 8.173225 8.108933 7.868162 7.707899 7.642974 7.545188 7.25911 7.356578 6.961174 6.55707 6.555269 6.746866 7.091296 7.686803 8.284818 9.067714 10.22861 9.936716 10.27262 10.30821 10.23167 10.30138 10.44885 10.08826 9.467372 9.360359 9.033504 8.834224 8.645271 8.576384 8.66948 8.668129 8.461178 8.723072 9.133012 9.680755 10.2319 10.4747 10.68998 10.87046 11.11671 11.36471 11.63597 11.93524 11.88341 11.9986 12.15751 12.37012 12.77786 13.06194 13.04819 13.16225 13.4506 13.26705 13.37342 13.25964 13.31791
-5.675212 -5.645393 -5.619723 -5.588106 -5.567269 -5.553115 -5.539314 -5.524173 -5.500433 -5.495885 -5.48218 -5.470384 -5.447142 -5.413248 -5.372966 -5.319844 -5.277957 -5.247409 -5.244087 -5.240832 -5.222305 -5.174838 -5.120768 -5.041528 -4.989555 -4.954881 -4.939668 -4.936256 -4.922441 -4.85378 -4.804143 -4.755445 -4.71603 -4.688284 -4.681486 -4.649927 -4.598575 -4.506294 -4.429952 -4.362283 -4.318021 -4.292785 -4.275537 -4.228988 -4.147758 -4.031931 -3.947536 -3.87942 -3.86002 -3.849774 -3.818493 -3.726197 -3.659387 -3.59504 -3.567835 -3.541738 -3.487452 -3.419493 -3.356499 -3.29792 -3.273064 -3.231289 -3.154452 -3.093899 -3.018823 -2.973233 -2.893311 -2.83517 -2.75762 -2.719733 -2.709601 -2.690038 -2.628535 -2.576763 -2.537186 -2.481409 -2.455225 -2.427754 -2.395827 -2.361562 -2.342759 -2.320521 -2.308265 -2.299723 -2.275077 -2.260942 -2.249647 -2.244326 -2.215181 -2.192852 -2.178742 -1.100847 -1.072169 -1.046052 -1.030431 -1.089052 -0.9688683 -1.006665 -1.035308 -1.015253 -1.020307 -0.7235358 -0.06745581 8.624343 15.58288 15.33742 15.35738 15.30572 15.80039 15.97662 16.26889 16.2834 15.86722 16.63938 16.28011 15.42177 14.78938 14.59764 14.18588 13.80389 12.6496 12.51318 11.78735 11.59673 11.76951 11.98241 12.9977 13.86649 14.22275 15.16723 15.34237 15.60268 15.961 15.62214 15.96739 15.82679 16.21644 15.88009 15.89342 15.95101 16.14185 16.22332 15.78051 16.34575 16.08181 17.35254 16.57314 16.70296 16.92529 16.99338 16.66242 17.2043 17.04483 17.26372 17.26854 17.62731 17.85705 17.81497 18.06362 17.99115 17.88661 17.96068 17.66048 17.41482 17.12193 17.02335 16.91667 16.48932 16.27752 16.15928 15.49906 15.20881 14.99655 14.67316 14.50946 14.51283 14.31078 14.27801 13.82132 13.31306 12.91721 12.81873 12.55443 12.18558 12.04358 10.94618 10.2207 9.61041 9.017712 8.606558 8.286552 8.101352 7.872216 7.675763 7.130124 7.175931 7.055153 6.828871 6.536438 6.533145 6.517613 6.470599 6.259656 6.544789 6.479052 6.615366 6.639108 7.080409 6.848526 6.788606 6.891979 6.728368 6.612781 6.618561 7.020911 6.931448 7.201182 7.013826 6.909304 7.037638 7.134655 7.449018 7.615972 7.472403 7.497017 7.719812 7.000794 6.784933 6.596241 6.822124 7.337785 7.781557 7.646913 7.788521 8.177987 7.742363 7.895333 8.225633 8.384365 8.176837 7.516042 7.340692 7.315927 7.006129 8.187259 7.74175 7.57066 7.793175 8.016563 7.513377 8.07641 8.024493 8.323971 8.121777 8.719108 8.987571 9.254097 9.094828 8.684079 8.17442 8.691328 9.575161 8.359847 8.140872 8.206952 8.722919 7.808765 7.579204 7.749277 7.969947 7.675992 7.430044 7.500812 6.981406 6.5294 6.422919 6.340953 6.412302 6.660095 7.116516 7.810429 8.545465 9.394 10.31372 10.4036 10.52195 10.5797 10.53776 10.5134 10.53713 9.784136 9.335705 9.138931 8.857696 8.538796 8.160805 8.645019 8.41945 8.451554 8.531215 8.743916 9.223083 9.759381 10.19158 10.43138 11.07077 11.04657 11.14648 11.3828 11.72036 11.81425 11.91016 12.17814 12.3505 12.4101 12.61263 12.88655 12.9614 13.14919 13.07331 13.13737 13.15164 13.12597 13.12813
-5.694934 -5.663994 -5.651315 -5.644885 -5.632195 -5.613493 -5.572326 -5.556437 -5.545698 -5.540971 -5.523416 -5.516912 -5.493342 -5.453795 -5.412238 -5.359593 -5.292011 -5.259609 -5.245132 -5.243537 -5.231779 -5.192694 -5.151727 -5.099448 -5.024635 -4.988789 -4.963451 -4.952158 -4.948432 -4.906518 -4.869803 -4.792146 -4.75204 -4.710676 -4.69408 -4.680423 -4.648742 -4.555436 -4.469708 -4.40807 -4.351008 -4.305786 -4.282261 -4.242515 -4.174201 -4.101113 -3.994974 -3.919412 -3.878088 -3.858557 -3.824751 -3.730203 -3.663126 -3.595555 -3.568026 -3.564037 -3.533362 -3.442709 -3.366415 -3.310584 -3.294884 -3.272967 -3.228519 -3.140898 -3.063187 -3.013842 -2.962521 -2.867576 -2.791825 -2.744631 -2.712899 -2.686849 -2.64073 -2.56811 -2.525829 -2.506775 -2.479347 -2.450452 -2.420646 -2.380273 -2.348778 -2.324717 -2.305017 -2.289054 -2.263891 -2.241128 -2.238935 -2.231012 -2.21196 -2.185085 -2.177346 -1.120054 -1.110244 -1.089493 -1.059972 -1.066301 -0.9702952 -1.033399 -0.9517975 -0.9413197 -0.9668939 -1.019887 -0.6771462 0.1701646 13.10216 15.51188 15.39729 15.30899 15.52423 15.78365 16.02247 15.8944 15.82497 15.6026 15.65222 14.71714 14.19524 13.7929 13.6845 13.09995 12.46984 11.83144 11.70811 11.54586 11.39767 11.9525 13.05649 13.20315 14.11883 14.54373 14.85085 14.98717 15.01673 15.19708 15.42962 15.47444 15.68393 15.70335 15.48705 15.90872 15.56666 15.35863 15.75866 15.62442 15.83756 16.10628 16.44873 16.79089 16.43615 16.84058 16.7288 16.83208 16.80117 17.1057 17.23469 17.54371 17.44489 17.46411 17.88489 17.73906 17.70774 17.88879 17.47767 17.37264 17.05895 17.04169 16.97252 16.29442 16.31429 15.99162 15.60666 15.32456 15.0932 14.88665 14.67232 14.75852 14.53779 14.08005 13.49053 13.03557 12.14838 12.49209 12.31688 12.05821 11.51639 10.83423 10.01823 9.557967 9.326176 8.674258 8.322517 8.324477 7.898783 7.405135 7.287783 6.941647 6.925351 6.869219 6.611383 6.503956 6.403085 6.306186 6.194881 6.297072 6.221251 6.41448 6.826746 6.874368 6.704759 6.306336 6.587652 6.68125 6.711238 6.975863 6.558428 6.869179 7.078113 7.362782 6.883248 6.949326 6.953846 7.155356 7.042304 7.586246 7.425477 6.89789 6.546704 6.165156 5.939677 6.335586 6.776745 7.107121 7.584427 7.914572 8.057045 8.265024 8.21788 8.133812 8.318872 7.925852 7.62957 7.349085 7.084652 7.519826 7.332245 6.988116 7.376699 7.509688 7.375824 7.536228 7.485696 7.800165 7.916651 8.218092 8.511226 8.670307 9.037619 8.630519 8.045009 7.911979 8.17528 8.239001 8.333376 8.168645 8.067018 8.06881 7.933461 8.012322 7.77169 7.15782 7.474807 7.354129 6.582139 6.168767 6.513938 6.171334 6.089005 6.381522 6.866692 7.248113 7.892032 8.727603 9.659104 10.05577 10.36152 10.60489 10.50718 9.802833 9.900771 9.78346 9.501899 9.142217 8.859859 8.611935 8.252291 8.232309 8.285813 8.324122 8.234973 8.338367 8.911139 9.373763 9.766573 10.03068 10.7354 10.91455 10.98498 11.09316 11.6055 11.73407 11.83454 11.9638 11.98363 12.05965 12.39697 12.45906 12.51531 12.87301 13.14983 12.85918 12.90101 12.97894 13.02296 13.2781
-5.698373 -5.702283 -5.703041 -5.700108 -5.678657 -5.656168 -5.628673 -5.584729 -5.576609 -5.561753 -5.556115 -5.554494 -5.529745 -5.493286 -5.442744 -5.388486 -5.323009 -5.285011 -5.265519 -5.249428 -5.241039 -5.214423 -5.182303 -5.142474 -5.101213 -5.042085 -5.005888 -4.997636 -4.98523 -4.94524 -4.917119 -4.880705 -4.822424 -4.790401 -4.738718 -4.717811 -4.684232 -4.646803 -4.564579 -4.493215 -4.408717 -4.380489 -4.312176 -4.262912 -4.216824 -4.158808 -4.075074 -4.015112 -3.919188 -3.884722 -3.843249 -3.783863 -3.665758 -3.607276 -3.57283 -3.565584 -3.537538 -3.474625 -3.363901 -3.317113 -3.296614 -3.292451 -3.263258 -3.177557 -3.123244 -3.082343 -3.036146 -2.948559 -2.859783 -2.794563 -2.7308 -2.69302 -2.640681 -2.56147 -2.514295 -2.501445 -2.491489 -2.463335 -2.431269 -2.406601 -2.35017 -2.336062 -2.318866 -2.287706 -2.256854 -2.235898 -2.233982 -2.226201 -2.208116 -2.186192 -2.174336 -2.155502 -1.213525 -1.059525 -1.033291 -0.9966936 -1.088216 -1.017109 -0.9421995 -1.117333 -0.9168691 -1.001513 -0.8192343 -0.06291024 9.42322 15.52364 15.2231 15.13706 15.27374 15.38977 15.52872 16.00361 15.65579 14.54857 14.35743 14.01714 13.6461 12.96306 12.43191 12.27646 11.78857 11.41443 11.27333 11.02403 10.7135 11.42518 12.18982 12.38126 13.40154 14.06848 14.77589 14.84846 14.77544 14.83546 14.74007 14.86683 15.14019 15.54817 15.06491 15.30656 15.19596 15.23437 15.39413 15.50885 15.80025 15.81813 16.07652 16.6089 16.39608 16.7036 16.54171 16.5425 16.53753 16.68605 16.91553 17.31315 17.2664 17.30691 17.48916 17.62148 17.44652 17.38559 17.47174 17.22301 17.05013 17.04627 16.82218 16.43486 16.21157 15.86601 15.72413 15.50767 15.30737 15.12355 15.043 14.8239 14.84389 14.32251 13.49952 13.29305 12.97211 12.73137 12.23402 11.62096 11.04745 10.65902 10.13446 9.61974 9.529607 8.632749 8.579997 8.99914 8.484553 7.546021 7.159979 7.13236 6.964812 6.783637 6.834636 6.202096 6.072678 6.048466 6.065308 5.983277 6.223952 6.13496 6.34537 6.470982 6.459332 6.439955 6.337451 6.467412 6.482279 6.700274 7.229669 6.933666 6.745278 6.764235 6.67724 6.888715 6.982735 6.993602 6.890649 7.399796 7.140182 6.782272 6.014888 5.806787 5.731766 6.070721 6.642669 7.052375 7.70194 7.859461 8.050857 8.101697 8.157812 7.819906 7.759511 7.680078 7.319831 7.116716 7.08683 6.852029 7.308089 6.796319 6.960379 7.019832 7.248123 7.194724 6.751975 7.899159 8.288575 8.042936 8.124228 8.428816 7.87452 7.446182 7.683651 7.819369 7.798288 7.943273 7.760008 8.235445 8.392058 7.880895 7.569739 7.650206 6.903586 6.577303 6.695763 6.528425 6.390278 5.643771 5.622748 5.765883 5.951135 6.305653 6.854952 7.289534 7.757945 8.742789 9.536316 9.464015 9.598276 9.713788 9.882831 9.614563 9.356314 9.406941 9.256629 8.947858 8.621513 8.252284 7.895441 8.346107 8.115366 8.121672 8.141783 8.436148 8.963902 9.258881 9.730372 10.3359 10.65755 10.67329 10.81172 11.14792 11.49321 11.41705 11.64242 11.85506 11.95707 12.24416 12.20834 12.25288 12.42408 12.60714 12.7951 12.81342 12.81143 12.82327 12.87313 13.12601
-5.712983 -5.729113 -5.742497 -5.742661 -5.731116 -5.701812 -5.663396 -5.620851 -5.590579 -5.569208 -5.564919 -5.56447 -5.549466 -5.513783 -5.468884 -5.421242 -5.376266 -5.339551 -5.302489 -5.294166 -5.268017 -5.241385 -5.219965 -5.191703 -5.160859 -5.133807 -5.096509 -5.086442 -5.040406 -5.028878 -5.001241 -4.969575 -4.933243 -4.859062 -4.798894 -4.776136 -4.746549 -4.718293 -4.672476 -4.621064 -4.523584 -4.478659 -4.444187 -4.363589 -4.308081 -4.260656 -4.155804 -4.073806 -4.021643 -3.97624 -3.907265 -3.822052 -3.742313 -3.642866 -3.600923 -3.584652 -3.537137 -3.486465 -3.391473 -3.335197 -3.308652 -3.301887 -3.265937 -3.213708 -3.152777 -3.12809 -3.092026 -3.015989 -2.933069 -2.841903 -2.796744 -2.715707 -2.659492 -2.594259 -2.524798 -2.508603 -2.501301 -2.465334 -2.429062 -2.399745 -2.372702 -2.348289 -2.325197 -2.29866 -2.263614 -2.241267 -2.232738 -2.22245 -2.195894 -2.18061 -2.165311 -2.15521 -2.145438 -1.053949 -1.163253 -1.149283 -0.9929641 -0.9770811 -1.01311 -1.017848 -0.974831 -0.9311253 -0.9186447 -0.5508512 0.5298083 14.08065 15.38233 15.14552 15.11797 15.30587 15.29344 15.4333 15.11624 14.23084 12.92712 13.13131 13.17221 12.37945 12.07395 11.6178 11.23086 10.94465 10.7961 10.47372 10.41482 10.75006 11.33308 11.71698 12.66638 13.92202 14.49955 14.47523 14.43938 14.42824 14.13942 14.13631 14.55239 14.68986 14.88389 14.90599 15.13724 15.07565 15.18965 15.25045 15.24333 15.67062 16.25935 16.29077 16.2343 16.18758 16.29174 16.31245 16.34253 16.48528 16.64198 16.76205 16.94711 17.09632 17.26958 17.42371 17.26605 17.26741 17.16065 17.08554 17.15224 16.98801 16.65727 16.56793 16.46274 16.21746 15.8694 15.71293 15.48679 15.29623 15.42426 15.07793 15.01092 14.58456 13.66506 13.41478 13.20248 12.67527 11.955 11.29433 10.79949 10.39529 9.977398 9.496134 9.141448 9.18383 8.971524 9.060922 9.017825 8.131828 7.343773 7.130995 6.914351 7.004698 6.53678 6.487759 6.201368 5.941384 6.00032 6.028992 6.135203 6.003578 5.962699 6.008731 6.218187 6.431584 6.199984 6.447185 6.479228 6.770291 6.699172 7.201935 6.834604 6.63 6.490911 6.283084 6.152169 6.388577 6.456388 5.672101 6.25172 6.0911 5.671375 5.413343 5.505007 5.901969 6.618101 7.194349 7.751873 7.9509 8.000453 8.078134 7.998287 7.648957 7.514575 7.278337 6.996761 6.592988 6.572068 6.441204 6.218766 5.979787 6.354739 6.560971 7.112962 7.08054 7.09263 7.3653 7.778306 7.671301 8.22491 8.139087 7.486298 7.25898 7.308499 7.520935 7.571827 7.602568 7.591625 7.302322 8.391364 8.085226 8.352352 7.042404 6.189193 6.162173 6.179729 5.803217 5.824106 5.980783 5.900689 5.680233 5.83013 6.321599 6.732955 7.170044 7.732109 8.736234 9.142743 9.12192 9.303375 9.611008 9.587934 9.54496 9.341545 9.284161 8.94083 8.625306 8.22677 7.873025 7.909859 8.181957 7.92215 8.002814 8.120491 8.541611 9.021527 9.369524 10.12295 10.30994 10.46123 10.59137 10.86324 11.14535 11.23437 11.40464 11.61706 11.7249 11.94108 12.16585 12.21515 12.13926 12.25726 12.59891 12.36263 12.66309 12.6723 12.70654 12.8209 12.55837
-5.741168 -5.763329 -5.783401 -5.796682 -5.785776 -5.747414 -5.701918 -5.653779 -5.613579 -5.577735 -5.567222 -5.564393 -5.550477 -5.528591 -5.490109 -5.453939 -5.418966 -5.389635 -5.370083 -5.343928 -5.337631 -5.296964 -5.268006 -5.247682 -5.223208 -5.212369 -5.195333 -5.1522 -5.146705 -5.096189 -5.079439 -5.05028 -5.01265 -4.966401 -4.902928 -4.882301 -4.855067 -4.801824 -4.765729 -4.712994 -4.651847 -4.547637 -4.504452 -4.457884 -4.385952 -4.348647 -4.294827 -4.156343 -4.090915 -4.01524 -3.961937 -3.86307 -3.806936 -3.732892 -3.678856 -3.631373 -3.5965 -3.510076 -3.420917 -3.371989 -3.339432 -3.318062 -3.26817 -3.217803 -3.196331 -3.173196 -3.150924 -3.081106 -2.999136 -2.904412 -2.859293 -2.813606 -2.73085 -2.633902 -2.568109 -2.53945 -2.508576 -2.46094 -2.425533 -2.395496 -2.376507 -2.365553 -2.336563 -2.307163 -2.270693 -2.241235 -2.229342 -2.20456 -2.191288 -2.17082 -2.161436 -2.157288 -2.161304 -1.126946 -1.157083 -1.010095 -1.026182 -1.043146 -0.8816264 -0.9932718 -0.9406961 -0.9746754 -0.9956824 -0.735558 0.5464401 9.019165 15.27165 14.88046 14.76631 15.07181 14.92208 15.3585 14.81693 14.12458 12.80514 12.18515 11.51894 11.54056 11.47399 10.90478 10.81683 10.63074 10.525 10.44003 10.26767 10.02756 10.57471 10.97837 12.1089 13.52077 13.76238 14.15995 14.13981 14.24546 13.96973 13.90399 13.84662 14.61588 14.6077 14.19227 14.69189 14.90426 15.14948 15.22604 15.11856 15.20003 15.69323 16.02257 16.11578 16.18964 15.88943 15.83359 15.82588 16.13603 16.2788 16.59814 16.59624 17.01463 17.03015 16.97105 17.02401 17.09961 17.08622 16.96559 17.0054 16.73482 16.75505 16.74001 16.1793 16.22508 16.15961 16.09504 16.00784 15.8987 15.76678 15.04926 15.40651 14.47831 13.91273 13.27754 13.24985 13.15335 12.5327 11.38307 11.09989 10.54069 10.17654 9.948472 9.890379 9.784485 9.526373 9.169582 9.38073 9.032631 8.233793 7.536622 7.416735 6.743704 6.724595 6.425652 6.028901 5.9109 5.916993 6.002546 5.803756 5.690799 5.849676 5.867537 5.882113 6.011368 6.477875 6.440541 6.532138 6.854186 7.12324 7.101089 6.832824 6.618117 6.446182 6.365402 5.754979 5.635588 5.372615 5.212232 5.256771 5.321203 5.18643 4.975179 5.336352 5.828906 6.419182 7.271887 7.664105 7.910193 7.609364 8.005585 7.578827 7.478954 7.345716 7.142588 6.866647 6.537604 6.229979 6.316591 5.673525 5.719975 5.885408 6.150384 6.344501 6.949533 6.810231 7.101635 7.347424 7.845374 7.993311 8.197083 7.768937 6.983694 7.225344 7.275861 7.306939 7.396019 7.256647 7.033866 6.927972 7.430182 7.292851 6.290091 5.929789 5.877732 5.645679 5.379859 5.122608 5.256859 5.995525 5.998793 6.220619 6.380207 6.73 7.079344 7.681634 8.646078 8.57262 8.844624 9.098355 9.243153 9.363974 9.345355 9.208493 9.010201 8.523983 8.231499 8.032181 7.649079 7.865972 7.898758 7.851617 7.842499 8.150894 8.706292 9.180383 9.597355 10.07712 10.17022 10.39858 10.71409 11.05515 11.47606 11.42199 11.48006 11.72007 11.99531 12.01261 12.07993 12.27971 12.42704 12.28427 12.59663 12.49534 12.48369 12.55328 12.77179 12.58412 12.27477
-5.751124 -5.78051 -5.813751 -5.836379 -5.825319 -5.780394 -5.72738 -5.676003 -5.631421 -5.602058 -5.577822 -5.570255 -5.563872 -5.552741 -5.511479 -5.486468 -5.460926 -5.438266 -5.429441 -5.421101 -5.388875 -5.386272 -5.361207 -5.346302 -5.300416 -5.276125 -5.257146 -5.215688 -5.209626 -5.208472 -5.189581 -5.161463 -5.119085 -5.047257 -4.999959 -4.976051 -4.933838 -4.917265 -4.887709 -4.823089 -4.73005 -4.642197 -4.5831 -4.512154 -4.494045 -4.445977 -4.388199 -4.274269 -4.192733 -4.10978 -4.048075 -4.002967 -3.914582 -3.858707 -3.769452 -3.716565 -3.643473 -3.597464 -3.462973 -3.419249 -3.381104 -3.321262 -3.278702 -3.230563 -3.194232 -3.184829 -3.171316 -3.115143 -3.027294 -2.970925 -2.902234 -2.868074 -2.795545 -2.728992 -2.618541 -2.575747 -2.520951 -2.46255 -2.424978 -2.389196 -2.376921 -2.370631 -2.342917 -2.30671 -2.270279 -2.240904 -2.21834 -2.198391 -2.17273 -2.159493 -2.159691 -2.16125 -2.164657 -2.167068 -1.087301 -1.043842 -1.05809 -1.070416 -0.9433488 -1.00494 -0.9870182 -0.9026341 -0.9705169 -0.915508 0.4942797 5.7148 14.62234 14.70986 14.57779 14.86588 14.72132 13.45407 13.92045 13.39767 12.69744 11.00252 11.18131 10.77209 10.05478 10.52153 10.5248 10.16247 10.21464 10.22142 10.36107 10.09791 10.08968 10.43249 11.06207 12.96146 13.20246 13.94324 14.16523 14.36495 14.34728 14.22724 14.30967 14.19079 13.74016 13.71084 14.12145 14.33239 14.93941 15.17969 15.388 15.38704 15.31241 15.18343 15.18607 15.33489 15.68382 15.6494 15.64587 15.69418 15.86683 16.1527 16.45427 16.88978 16.61814 16.77219 16.82818 16.74308 16.86486 16.68954 16.68618 16.61943 16.9014 16.42847 16.21537 16.09975 16.07121 15.96066 16.01752 15.94445 15.79257 15.76641 15.65235 14.53838 14.0204 13.42973 13.38832 12.5209 12.46126 12.49992 11.3275 10.63761 10.23108 10.03568 10.38418 9.998877 9.871723 9.631997 9.197591 8.599511 7.712909 7.901394 6.776903 6.701546 6.657151 6.567598 6.284034 5.847229 5.810152 5.814624 5.5373 5.637197 5.521142 5.526227 5.656753 5.945503 6.463596 6.701439 7.054267 6.976267 7.354253 7.167127 6.81049 6.643912 6.350879 6.128072 5.690162 5.473316 4.897418 4.706632 4.771165 4.735112 4.629145 4.729591 5.108978 5.865424 6.525567 6.945679 7.192441 7.529332 7.724247 7.789628 7.227924 7.017084 6.949329 6.788806 6.553084 6.398036 6.135402 5.819026 5.396811 5.431147 5.819616 5.903519 6.066014 6.378249 6.574027 6.733289 6.941484 7.530053 7.858613 8.061736 7.740847 6.887725 6.994836 7.092115 7.201774 7.047338 6.907782 6.809966 6.571372 7.000466 6.666453 6.193508 5.791205 5.417037 5.23235 5.129403 4.854871 6.403852 6.092485 6.128097 6.215662 6.614829 7.12238 7.217491 7.813851 8.391322 8.184592 8.605245 8.920705 8.930094 9.044723 9.07981 8.894697 8.501689 8.19882 7.780111 7.643884 7.489182 7.657396 7.634505 7.813697 7.964667 8.340208 8.807944 9.201859 9.887048 9.920709 10.15029 10.40266 10.63833 11.20939 11.46665 11.34402 11.59088 11.82685 11.87231 11.98531 12.07602 12.13947 12.11932 12.52207 12.32686 12.21813 12.33055 12.57845 12.51867 12.21131 11.96652
-5.754785 -5.784446 -5.815747 -5.839167 -5.829416 -5.789506 -5.738677 -5.689181 -5.652365 -5.625446 -5.609915 -5.600711 -5.580312 -5.570832 -5.554379 -5.54178 -5.524332 -5.506833 -5.477896 -5.470247 -5.441582 -5.443748 -5.435104 -5.421413 -5.39653 -5.355954 -5.329786 -5.287667 -5.270018 -5.280448 -5.272738 -5.241921 -5.187885 -5.126011 -5.050261 -5.024649 -5.012073 -5.017488 -4.982004 -4.908244 -4.786931 -4.688194 -4.612525 -4.568254 -4.55218 -4.524002 -4.468055 -4.361175 -4.268753 -4.19108 -4.134452 -4.062634 -3.998928 -3.948125 -3.873539 -3.81169 -3.74479 -3.656314 -3.554963 -3.511817 -3.465535 -3.40415 -3.305461 -3.248896 -3.205322 -3.18457 -3.171727 -3.11932 -3.035547 -2.979253 -2.950644 -2.918861 -2.859714 -2.7742 -2.7048 -2.61088 -2.566911 -2.498963 -2.454865 -2.397991 -2.377934 -2.368684 -2.331102 -2.29442 -2.267468 -2.252178 -2.226419 -2.191732 -2.161436 -2.152933 -2.153238 -2.152925 -2.150235 -2.144975 -1.158403 -1.117755 -1.071576 -1.11626 -1.040992 -0.9441506 -1.048943 -0.9970173 -0.9405082 -0.9511353 -0.402612 2.948056 13.25348 14.32903 14.27155 14.52867 14.55884 13.54028 10.69668 12.9879 10.41159 7.369224 3.712617 4.059971 4.681283 5.279862 6.340051 9.821282 9.908484 9.989495 9.793946 9.608649 10.00395 9.988784 10.71494 12.95415 13.78275 13.82696 14.16168 14.46785 14.23612 14.00623 13.60823 13.24827 13.11543 13.41628 13.65246 13.7867 14.3819 14.86196 15.15415 15.16194 15.44401 15.07252 15.04844 14.74801 15.09924 15.26287 15.23304 15.24808 15.46779 16.02874 16.30342 16.45644 16.36199 16.70471 16.40917 16.52601 16.5683 16.51382 16.4162 16.51748 16.49056 16.36366 16.24622 16.11654 15.99089 15.87277 15.98812 15.77514 15.65693 15.54736 15.57007 14.66912 14.20416 13.84558 13.1717 12.73329 12.66509 12.1362 12.24585 11.27636 10.70274 10.87142 10.50842 10.58862 10.34389 10.21222 9.904012 7.966149 7.505728 8.014086 7.335813 7.026394 6.519146 6.309533 5.921659 5.854572 5.955829 5.572632 5.526652 5.440556 5.517118 5.476262 5.751303 5.880947 6.54412 6.524631 6.623417 6.921273 6.975136 6.952531 6.683856 6.387062 6.424667 6.348855 6.614191 5.37878 4.661031 4.464933 4.38477 4.314554 4.235578 4.657667 5.130164 5.694052 6.56379 6.82332 7.028128 7.240687 7.184267 6.999339 6.901155 6.894516 6.610559 6.367172 6.048252 6.018093 6.051376 5.488624 5.275438 5.43541 5.73989 5.891623 6.040228 6.446586 6.53552 6.808527 7.017189 7.398345 7.429966 7.50748 7.556707 7.149947 6.802508 6.832176 6.893604 6.90476 6.592964 6.352475 6.54371 6.832245 6.381384 6.130013 5.806642 5.296564 4.92676 4.805561 4.776173 6.398757 6.072309 6.07128 6.484765 6.952456 7.205456 7.498182 7.936297 7.90418 8.033332 8.334603 8.559808 8.696656 8.737455 8.756767 8.403784 8.169742 7.704992 7.289019 7.190679 7.573998 7.575689 7.63422 7.844534 8.15102 8.396665 8.897172 9.425657 9.968069 9.880087 10.15713 10.43016 10.65559 11.27253 11.27898 11.38083 11.57387 11.64015 11.80634 11.80673 11.81952 12.09513 12.37089 12.21099 12.30467 12.15685 12.33643 12.42293 12.06261 11.89484 11.68401
-5.748112 -5.771796 -5.798702 -5.812081 -5.80667 -5.774594 -5.738283 -5.699212 -5.670712 -5.648819 -5.636123 -5.62465 -5.603137 -5.599467 -5.588763 -5.580373 -5.565509 -5.548167 -5.537467 -5.508379 -5.507852 -5.509734 -5.511481 -5.498489 -5.453203 -5.405255 -5.368971 -5.346287 -5.33895 -5.341162 -5.346445 -5.318172 -5.243125 -5.164807 -5.097801 -5.063794 -5.059093 -5.066007 -5.052263 -4.969474 -4.85354 -4.722436 -4.631364 -4.581799 -4.55996 -4.554743 -4.503286 -4.398605 -4.298175 -4.210753 -4.148394 -4.115404 -4.068487 -4.015638 -3.943669 -3.872818 -3.802102 -3.755567 -3.67662 -3.590347 -3.557562 -3.468472 -3.353015 -3.290604 -3.233857 -3.206972 -3.173535 -3.118785 -3.037861 -2.979861 -2.954421 -2.950394 -2.900257 -2.813912 -2.736574 -2.635031 -2.589772 -2.524244 -2.468762 -2.430534 -2.384009 -2.363361 -2.314945 -2.282755 -2.262203 -2.253846 -2.233063 -2.193983 -2.164208 -2.157189 -2.151736 -2.149096 -2.142459 -2.141744 -2.149424 -1.079879 -1.155582 -1.056501 -1.058763 -0.9703013 -0.9372548 -0.969826 -0.9717368 -0.9924123 -0.865686 0.4722136 6.432498 13.71561 14.12454 14.44517 14.43934 14.21259 9.669927 8.769045 6.95649 2.173684 2.254021 2.638932 3.265336 4.036712 4.803017 5.589138 8.988105 9.254353 8.925749 8.989933 9.267972 9.733538 11.5086 12.97887 13.82486 14.06362 13.93095 13.75664 13.4871 12.92044 12.54683 12.51168 12.69679 13.33485 13.48713 13.75522 14.31489 14.69775 14.88667 14.93977 14.99207 15.08012 14.9693 14.7849 14.9012 14.88423 14.87562 15.1731 15.51482 15.87475 15.82602 16.09886 16.12173 16.35889 16.33746 16.50777 16.35799 16.27653 16.33948 16.50055 16.16385 16.26925 16.35723 16.17654 15.98847 15.87452 15.85061 15.75792 15.74057 15.72781 15.57016 14.941 14.49643 14.04932 13.44032 12.83408 12.39715 12.18411 11.88666 12.40188 11.51722 11.06402 11.23552 11.07602 10.98251 10.56268 8.846374 8.181387 7.617467 7.412959 7.860807 6.989827 6.645023 6.16652 5.869366 6.424354 5.978162 5.47755 5.490767 5.338655 5.301724 5.459692 5.660216 6.427309 6.608953 6.292696 6.472769 6.599833 6.659506 6.655967 6.584967 6.449423 6.392389 5.742628 6.270675 4.872695 4.367884 4.24588 4.094667 4.088256 4.238957 4.575127 5.106161 5.784826 6.639998 6.943789 6.673831 6.933722 7.018743 6.621587 6.626209 6.543749 6.356559 6.10068 5.923154 5.938898 5.91175 4.99485 5.87612 5.643746 5.526763 5.730312 6.065818 6.350741 6.616644 6.826267 7.142644 6.895259 7.097782 7.19828 6.899673 7.28153 7.016293 6.726449 6.550539 6.475071 6.422207 6.254697 6.363513 6.74945 6.094473 5.823647 5.81861 5.348259 4.958066 4.722907 4.938827 6.448356 6.255767 6.553908 6.873616 7.635764 7.294095 7.393817 8.434808 8.09205 8.193462 8.185672 8.337234 8.21261 8.33567 8.203822 7.949558 7.547009 7.136933 7.055133 7.291423 7.405149 7.242315 7.52283 7.93804 8.152272 8.401102 8.900245 9.680507 9.662562 9.788408 10.1412 10.41947 10.67793 11.27497 11.21395 11.33826 11.47222 11.55833 11.65109 11.61178 11.79777 12.11672 12.09512 12.18012 12.05461 12.04225 11.99464 12.15747 11.68354 11.64642 11.5377
-5.735856 -5.750877 -5.770781 -5.781538 -5.775535 -5.761054 -5.743322 -5.706982 -5.703588 -5.687955 -5.658523 -5.651521 -5.649627 -5.633699 -5.633924 -5.628268 -5.612528 -5.591136 -5.570572 -5.557097 -5.536365 -5.547997 -5.557095 -5.546374 -5.512188 -5.459015 -5.415414 -5.364523 -5.355979 -5.36076 -5.3696 -5.344548 -5.278793 -5.207223 -5.121916 -5.080824 -5.068036 -5.07153 -5.060791 -5.001157 -4.877081 -4.762609 -4.665973 -4.597283 -4.566339 -4.554639 -4.527729 -4.430725 -4.315807 -4.222301 -4.147389 -4.112797 -4.107067 -4.078402 -4.008492 -3.940468 -3.881833 -3.83437 -3.772045 -3.69525 -3.650916 -3.582026 -3.506222 -3.384608 -3.285226 -3.256303 -3.222027 -3.133311 -3.060835 -2.997566 -2.960591 -2.95338 -2.907956 -2.838659 -2.763183 -2.699847 -2.606195 -2.553152 -2.502576 -2.460863 -2.423454 -2.359512 -2.308156 -2.276253 -2.257038 -2.2545 -2.239678 -2.204228 -2.182361 -2.162186 -2.147288 -2.136773 -2.135352 -2.136759 -2.159765 -1.147023 -1.060063 -1.057895 -1.110114 -1.053105 -0.9293543 -1.138583 -0.8965675 -0.9953526 -0.8390251 -0.8544549 0.5425413 6.483936 12.94798 12.72609 12.81778 10.16518 6.914664 6.214085 2.999074 1.110732 1.168661 1.286019 1.775233 2.391535 3.536836 4.676545 5.81609 8.024598 8.129174 8.415488 9.009341 10.29542 11.47488 14.24889 14.81285 14.21436 13.52127 13.23742 13.02928 12.39635 12.08932 12.34313 12.64252 13.10525 13.49743 13.76108 14.07817 14.64416 14.9838 14.74764 14.92293 14.50486 14.09609 14.75017 14.51549 14.56136 14.82825 14.97408 15.2213 15.49961 15.61519 16.04285 16.10178 15.94773 16.2637 16.27036 16.26785 16.33704 16.08652 16.16035 15.87611 16.00588 16.17604 16.5516 16.28759 15.99204 15.79781 15.7888 15.80249 16.12237 15.64089 15.38257 14.76473 14.12137 13.66217 12.94816 12.6737 12.14426 12.28882 12.29661 12.61981 11.61353 11.16969 11.49001 11.37018 9.834388 9.0895 8.488832 7.90062 7.703642 7.151767 7.285283 6.676636 6.089544 6.595832 5.836425 5.708477 5.699962 5.259369 5.289278 5.320217 5.251383 5.736569 6.406221 6.188558 6.31905 6.385238 6.426354 6.55445 6.462699 6.269909 6.14113 6.035479 5.954317 5.382293 5.158106 4.255568 3.983941 3.873118 3.964743 4.217347 4.434845 4.998123 5.849825 6.502464 6.480827 6.350467 6.512681 6.296208 6.311905 6.235033 6.184656 6.080984 5.839278 5.85359 5.554855 4.886439 4.958828 5.539884 5.396518 5.491824 5.816678 6.374913 6.284623 6.609304 7.205794 7.157026 7.115601 6.850795 6.800217 6.860939 6.89305 7.105659 7.049286 6.697124 6.26454 6.195819 6.150273 6.348442 6.143891 5.818067 5.838288 5.63563 5.235493 4.941092 4.426773 5.503137 5.935681 6.330352 6.704146 7.070113 7.010676 7.344599 7.849176 8.382045 7.92957 8.199795 8.250232 8.108342 7.96924 7.837204 7.576007 7.363038 7.052761 6.817204 7.083404 7.326838 7.289281 7.371033 7.647907 8.081664 8.362187 8.595548 8.939996 9.802073 9.560302 9.736424 10.05517 10.35593 10.67325 11.23507 11.20983 11.40558 11.34934 11.4266 11.45873 11.59078 11.82009 12.07229 12.18821 12.0074 12.1818 11.82442 11.66571 11.61397 11.50007 11.43745 11.4365
-5.719501 -5.731278 -5.746111 -5.754909 -5.757641 -5.748463 -5.736614 -5.731606 -5.720522 -5.708632 -5.697938 -5.676283 -5.6765 -5.682151 -5.684161 -5.680284 -5.654822 -5.62653 -5.598201 -5.585825 -5.56226 -5.568101 -5.580812 -5.572701 -5.538354 -5.484007 -5.437216 -5.382053 -5.364878 -5.363094 -5.359488 -5.339038 -5.283369 -5.22268 -5.142797 -5.098543 -5.074366 -5.058678 -5.037996 -4.991061 -4.880481 -4.788207 -4.703009 -4.636427 -4.597183 -4.568111 -4.514583 -4.454646 -4.36792 -4.243493 -4.163337 -4.119291 -4.110864 -4.100372 -4.061987 -3.965567 -3.900347 -3.853433 -3.820017 -3.796927 -3.731307 -3.657856 -3.581128 -3.514442 -3.407109 -3.321491 -3.278271 -3.198277 -3.099556 -3.036196 -2.987539 -2.966048 -2.9217 -2.834628 -2.754569 -2.682003 -2.637384 -2.582961 -2.552201 -2.509197 -2.464543 -2.396537 -2.312909 -2.282134 -2.259142 -2.250946 -2.228435 -2.204531 -2.18577 -2.166496 -2.144613 -2.128653 -2.123876 -2.129542 -2.145226 -2.17029 -1.110659 -1.018434 -1.06685 -1.100565 -1.031394 -0.9202412 -1.061096 -0.9433631 -1.071694 -0.980856 -0.5357397 0.3743448 2.48156 1.799255 5.150852 4.477067 1.651024 0.8243831 0.8437612 0.9689952 1.017488 0.9266332 0.9345499 1.201817 1.959384 3.120226 4.508252 7.095966 7.500354 9.291296 9.332971 11.57849 13.84499 13.83902 13.57546 14.14641 13.11748 12.37754 12.24545 11.69173 11.64045 11.99442 12.80488 12.99627 13.22747 13.67815 14.29277 14.58807 14.67193 14.69207 14.81749 14.12067 13.96758 13.73 13.62922 13.762 14.16115 14.70293 14.88482 15.32728 15.20538 15.95752 15.71749 15.68136 15.75601 16.07348 16.14577 16.14269 16.17234 15.85513 15.78944 15.80159 16.35184 16.85637 15.92399 16.4027 16.11626 15.93591 16.21796 16.19061 15.65967 15.3292 15.3987 15.01558 13.95842 13.93557 13.3164 12.71812 12.63269 13.07491 12.66185 12.14323 11.56404 11.31454 11.06258 10.38509 9.516949 8.875927 8.315469 7.748659 7.143904 6.866145 7.274768 6.55126 6.047083 5.79324 5.800766 5.486961 5.636833 5.305822 5.246229 5.220798 6.268341 5.983384 5.933342 6.315567 6.299939 6.357774 6.2804 6.243251 6.192544 5.85075 5.530939 5.301372 5.124661 4.682624 4.153916 3.805698 3.79414 4.001224 4.096145 4.428316 4.840973 5.776408 5.767612 6.210862 6.019472 5.978512 5.791029 5.917677 5.885176 5.934116 5.8891 5.409816 5.161853 5.006614 4.642699 4.773834 5.461296 5.412479 5.557379 5.75117 6.133224 6.417485 6.722717 6.823765 7.152717 7.045445 7.089867 7.249629 7.008447 7.019699 7.232654 6.923605 6.936059 6.601777 5.899221 6.015393 6.459478 5.798929 5.66011 5.556437 5.50053 4.964039 4.735356 4.292994 4.725865 5.381996 5.60401 6.261179 7.11972 7.318639 7.126055 7.818374 7.496481 7.578995 7.871472 7.746389 7.763546 7.501997 7.405428 7.102963 6.770839 6.705245 6.65043 7.042236 7.116773 7.391651 7.612138 7.966878 8.216891 8.555005 8.780207 9.044768 9.775532 9.559525 9.654791 9.919797 10.28215 10.7885 10.98492 11.21446 11.20325 11.21554 11.33427 11.46531 11.50858 11.43174 11.46571 11.77088 12.05867 11.88147 11.60933 11.36097 11.38767 11.23724 11.21851 11.803
-5.70583 -5.713708 -5.724056 -5.737029 -5.745197 -5.738848 -5.74812 -5.748722 -5.742179 -5.730941 -5.713878 -5.70889 -5.707641 -5.705628 -5.717049 -5.717267 -5.697338 -5.663872 -5.628622 -5.601013 -5.584799 -5.575948 -5.578787 -5.571845 -5.543718 -5.496243 -5.454532 -5.419282 -5.379977 -5.367264 -5.359355 -5.325654 -5.279867 -5.242493 -5.196798 -5.154362 -5.095006 -5.056648 -5.033857 -4.997446 -4.925596 -4.860201 -4.750194 -4.691311 -4.632327 -4.601161 -4.569888 -4.523638 -4.409783 -4.325707 -4.231336 -4.165334 -4.133082 -4.11749 -4.081468 -4.022075 -3.914575 -3.859245 -3.830074 -3.824169 -3.799181 -3.711725 -3.641567 -3.576962 -3.530698 -3.405237 -3.348943 -3.288087 -3.203133 -3.089455 -3.037705 -2.998574 -2.933137 -2.836284 -2.743369 -2.654608 -2.606439 -2.601645 -2.574208 -2.533554 -2.488924 -2.437193 -2.347895 -2.296495 -2.26763 -2.248953 -2.225847 -2.195776 -2.180744 -2.163041 -2.135502 -2.122465 -2.118677 -2.122448 -2.12938 -2.135943 -1.189876 -1.182191 -1.124615 -1.102098 -1.070326 -0.934445 -0.923859 -0.9900256 -0.9405605 -0.9012691 -0.923076 -0.6462091 -0.3337637 0.01194372 3.910655 0.891533 1.034514 0.7561142 0.8216321 0.8816771 0.9013197 0.7712072 0.8620319 0.808361 0.8127052 1.809089 3.037422 4.119133 7.404756 8.274034 9.40479 9.807973 12.30023 13.12112 12.88064 13.18501 12.30192 11.53147 11.16738 11.55917 11.28828 12.2509 12.71044 13.23313 13.2998 13.65312 14.04425 14.23703 14.26416 14.3847 14.2871 13.86375 13.70689 13.39289 13.09978 13.05213 13.36266 14.15368 14.63452 15.0713 15.14875 15.54466 15.60706 16.12096 15.98003 15.80459 15.90687 16.22025 15.85756 15.49196 15.72408 15.99464 16.42872 16.16421 16.10578 16.52086 16.06811 16.25323 16.53224 15.82731 15.93938 15.64779 15.38327 15.4425 14.78185 14.07515 13.78709 13.25186 13.44895 13.05755 13.27189 13.07032 12.05375 11.63202 11.16568 10.73371 10.24035 9.580446 8.789581 7.788628 7.197398 7.549039 6.089622 7.099655 6.133433 5.667624 5.681014 5.702693 5.319601 6.163409 5.260308 5.318487 5.647693 5.663678 5.866494 6.187754 6.063749 6.101431 6.167145 6.104249 5.85501 5.533628 5.339761 4.965918 4.63627 4.473425 4.451678 4.447862 4.360963 4.49057 4.415496 4.443133 5.108216 5.410489 5.793882 5.766596 5.991419 5.597264 5.608256 5.533088 5.485378 5.522788 5.533315 5.065872 4.761229 4.482416 4.391753 4.415345 4.769582 5.025148 5.187685 5.54632 5.720165 6.05084 6.350778 6.377721 6.286077 6.458344 6.580498 6.634347 7.090453 7.105004 7.101439 6.965064 6.531265 6.670009 6.43808 6.221702 5.951842 5.578922 5.442936 5.339734 5.209534 4.609926 4.324327 4.304291 4.499063 4.884726 5.18538 6.333287 6.556125 7.090157 7.268673 7.503269 7.223061 7.278126 7.419631 7.643058 7.081031 7.127519 6.694622 6.605245 6.563598 6.631625 6.739688 6.908057 6.975159 7.664572 7.875213 8.201272 8.404908 8.718167 8.830456 9.083247 9.774521 9.539221 9.734653 9.948918 10.23286 10.48312 10.84883 11.08087 11.0831 11.09398 11.29605 11.27732 11.3529 11.23082 11.22095 11.40485 11.76074 11.71313 11.63502 11.50751 11.11916 11.08374 11.44001 11.53619
-5.694427 -5.700766 -5.711759 -5.726151 -5.733177 -5.755483 -5.770983 -5.777656 -5.767159 -5.752423 -5.73429 -5.725979 -5.721211 -5.725877 -5.735838 -5.73893 -5.718225 -5.682285 -5.644752 -5.614651 -5.590676 -5.576468 -5.573976 -5.558991 -5.539035 -5.505692 -5.469389 -5.440567 -5.416778 -5.381181 -5.36802 -5.331646 -5.307673 -5.263562 -5.228932 -5.192985 -5.159892 -5.112593 -5.049682 -5.017108 -4.95407 -4.905596 -4.846521 -4.770435 -4.726629 -4.65449 -4.620867 -4.579778 -4.476555 -4.406744 -4.338186 -4.252017 -4.184448 -4.155067 -4.113463 -4.052081 -3.938295 -3.869486 -3.835075 -3.82944 -3.811406 -3.77025 -3.715056 -3.633598 -3.604996 -3.563875 -3.488439 -3.420444 -3.339402 -3.263361 -3.12825 -3.076709 -2.983203 -2.901901 -2.759492 -2.660834 -2.605546 -2.604317 -2.583681 -2.547895 -2.506269 -2.443163 -2.375097 -2.332974 -2.27779 -2.246084 -2.213687 -2.182122 -2.168298 -2.161085 -2.150187 -2.125055 -2.122253 -2.122881 -2.12583 -2.119805 -2.116016 -1.126797 -1.076088 -1.049105 -1.041338 -0.9726258 -0.9175173 -1.045715 -1.038042 -1.036108 -0.9245579 -0.8110411 -0.7069499 -0.6394582 0.971257 0.6847034 0.8967694 0.5248786 0.6394234 0.8075463 1.068815 0.7153853 0.6908718 0.7829508 0.6368551 0.724589 1.809762 3.274006 6.840627 7.539591 9.197992 9.995697 12.78504 12.77938 12.44779 12.28736 11.53608 10.65564 10.31018 10.89676 11.26749 12.27088 12.76933 12.82045 13.20433 13.40189 13.57425 13.95764 14.28809 14.11778 14.12512 13.82121 13.34447 13.47284 12.52055 13.18574 13.10687 13.86609 14.6186 14.52691 15.30966 15.39121 15.68181 15.46714 15.57317 15.82927 16.0043 15.85602 15.14864 15.07784 15.30446 15.96286 16.11388 15.99746 16.09079 16.47544 16.45907 17.08401 16.29037 15.70175 15.70905 15.57224 15.66009 15.58183 15.33123 14.82119 14.55976 13.97479 13.93027 13.69548 13.69454 13.24162 12.61351 11.84159 11.54446 11.05966 10.97233 10.32827 9.285058 8.142862 8.803178 6.673867 6.448577 6.557004 6.069754 6.009674 5.540544 5.602188 5.403671 5.240784 5.532394 6.029854 5.889547 5.411617 5.832162 5.847144 5.963586 5.932917 5.90695 5.703409 5.54046 5.253661 4.9464 4.603692 4.288202 3.978162 4.117652 3.644176 3.297981 3.393833 3.710529 4.369534 4.990246 5.230742 5.456048 5.581317 5.460689 5.552101 5.584368 5.56801 5.479597 5.347491 5.308411 4.755317 4.366977 4.253755 4.12558 4.18409 4.428047 4.662479 4.988396 5.371014 5.629784 5.7763 6.027289 6.140512 6.18208 6.248919 6.161839 6.106355 5.993027 6.314431 6.316577 6.407767 6.464313 6.443705 6.554831 5.716745 5.413164 5.398682 5.319195 5.021555 4.957565 4.293882 3.932111 4.003953 4.547902 4.677776 5.149191 6.055055 6.509731 6.992365 7.304099 7.09652 7.019149 6.963025 7.050036 6.972678 6.695858 6.384208 6.500961 6.535411 6.702505 6.519966 6.75376 6.926233 7.627805 7.764601 8.068633 8.597178 8.599296 8.668566 8.808992 9.086408 9.634793 9.593242 9.770945 9.948478 10.22146 10.33345 10.80566 10.84894 10.98522 11.11313 11.23413 11.28747 11.21612 11.22364 11.22686 11.25505 11.29871 11.02749 11.34293 11.37654 11.14591 11.24172 11.54969 11.09947
-5.674073 -5.679747 -5.69321 -5.713995 -5.739023 -5.770068 -5.800054 -5.811213 -5.806855 -5.783238 -5.759354 -5.73741 -5.727163 -5.726333 -5.735991 -5.736721 -5.718638 -5.687314 -5.654093 -5.621188 -5.601718 -5.589563 -5.574411 -5.565866 -5.532862 -5.514242 -5.486999 -5.464893 -5.444396 -5.427389 -5.396985 -5.382013 -5.334758 -5.330086 -5.271521 -5.254918 -5.221301 -5.154586 -5.11972 -5.092663 -5.017144 -4.981935 -4.938198 -4.890611 -4.800779 -4.718416 -4.686379 -4.653748 -4.610675 -4.512703 -4.444958 -4.353829 -4.307209 -4.213957 -4.16515 -4.102426 -3.984406 -3.910778 -3.867683 -3.84986 -3.8412 -3.820739 -3.744398 -3.715752 -3.688824 -3.668986 -3.605459 -3.523855 -3.425728 -3.321963 -3.247517 -3.150913 -3.055509 -2.967928 -2.857431 -2.739213 -2.654395 -2.635902 -2.589551 -2.55505 -2.517694 -2.458355 -2.430743 -2.366922 -2.316875 -2.246665 -2.197828 -2.159476 -2.153571 -2.158214 -2.153449 -2.13621 -2.127769 -2.118417 -2.11335 -2.106129 -2.111109 -1.248962 -1.113383 -1.152657 -1.03197 -1.155164 -0.9982198 -0.9999051 -1.082506 -1.014468 -0.9381188 -0.8424806 -0.8547859 -0.6209843 0.4721332 0.6063229 0.563252 0.4968029 0.4518518 0.6110511 0.6697059 0.6558118 0.5715106 0.58353 0.4855529 0.5580691 0.7002804 2.08244 3.586339 7.512746 8.629827 11.36285 12.00958 11.93604 11.60452 11.24759 10.3923 10.47432 10.31539 10.73416 11.31249 12.21237 12.60372 12.80773 13.1321 13.15451 13.19058 13.59512 13.74364 13.81352 13.55715 13.61982 12.74588 12.28941 12.0612 12.57125 13.14953 13.62987 14.25422 14.60092 14.89092 15.24002 15.43889 15.63673 15.35053 15.35897 15.80434 15.73453 14.77092 14.89474 15.27406 15.51818 15.88314 15.90634 16.05777 16.69498 16.68164 17.27686 16.93285 15.77355 15.27916 15.71991 15.64881 15.77414 15.82609 15.39818 14.83724 14.95445 14.26363 14.01198 13.96537 13.72205 13.39403 12.50229 11.92098 11.63828 11.51473 10.96278 9.761592 9.369419 8.446502 8.341718 8.053102 6.622587 6.232875 6.04321 5.888972 5.448658 5.396377 5.233683 5.164447 5.443685 5.4952 5.48626 5.787936 5.578181 5.722199 5.7412 5.666126 5.412531 5.174985 4.922894 4.577135 4.291322 3.995477 3.977045 3.745111 3.239275 3.203542 3.337081 3.379776 3.997553 4.260766 4.714797 4.863539 5.169106 5.306893 5.250986 5.158643 5.093977 5.012734 4.93371 4.771967 4.558543 4.164564 4.004766 4.006236 4.052796 4.270266 4.728218 4.994655 5.294616 5.488546 5.589005 5.89747 5.992066 5.956327 6.094679 5.956389 5.980277 5.906696 5.939049 6.016013 5.92657 5.864827 5.948303 5.780659 5.498681 5.317877 5.212357 4.922995 4.800052 4.436391 3.843223 3.578333 3.576051 4.295217 4.307167 5.208034 6.101288 6.389829 6.562188 6.992254 6.911656 6.794196 6.735188 6.721263 6.403012 6.08431 5.928337 6.301322 6.66796 6.501012 6.533134 6.526674 6.885074 7.572172 7.737943 8.085673 8.372813 8.615925 8.778718 8.778998 9.631022 9.26724 9.415936 9.653764 10.24712 10.22356 10.28134 10.70731 10.8815 11.01789 11.12465 11.04278 11.12774 11.07652 11.33878 10.97453 11.17779 11.0991 10.78392 10.76505 11.23054 11.27124 11.19668 11.23748 10.81479
-5.649364 -5.65428 -5.671171 -5.699793 -5.736879 -5.782962 -5.828504 -5.853023 -5.846225 -5.812187 -5.775837 -5.746193 -5.730136 -5.722503 -5.725076 -5.724003 -5.712447 -5.682511 -5.652428 -5.630549 -5.613662 -5.601608 -5.593448 -5.568156 -5.561048 -5.544686 -5.532148 -5.493848 -5.475815 -5.469033 -5.456336 -5.41617 -5.40815 -5.376143 -5.341599 -5.311073 -5.274979 -5.203051 -5.166279 -5.141923 -5.120088 -5.05278 -5.013448 -4.962712 -4.873219 -4.827579 -4.753839 -4.733935 -4.708817 -4.620212 -4.550787 -4.452767 -4.396497 -4.330412 -4.27636 -4.211552 -4.096954 -3.979471 -3.929685 -3.898762 -3.878676 -3.853005 -3.773582 -3.747592 -3.735508 -3.74474 -3.71701 -3.608023 -3.489449 -3.376409 -3.307415 -3.26535 -3.184714 -3.064581 -2.952432 -2.834082 -2.716959 -2.678721 -2.646107 -2.573394 -2.526456 -2.490886 -2.47714 -2.42502 -2.346054 -2.274972 -2.198451 -2.154677 -2.15103 -2.156264 -2.151574 -2.135592 -2.127935 -2.110054 -2.099922 -2.099676 -2.10658 -2.115103 -1.180576 -1.098015 -1.07552 -1.032819 -1.100111 -1.015067 -1.028999 -1.045608 -1.002501 -0.95397 -0.939153 -0.723457 -0.05623938 0.4089333 0.3464797 0.3625331 0.4521128 0.4213614 0.4613482 0.7008818 0.4246153 0.5044327 0.4990617 0.4653746 0.5794212 1.2427 2.389514 6.460424 8.783525 9.657867 11.05186 11.59421 11.20949 10.63803 9.839125 9.434192 9.876499 10.61707 11.27081 12.00769 12.42346 12.73752 12.82405 12.88759 13.11261 13.35279 13.78374 13.49347 13.22449 12.87434 12.2935 11.60698 11.73588 12.27066 12.79164 13.89587 14.25385 14.49054 14.54327 14.75943 14.81705 15.061 15.22978 14.92328 14.78499 14.54498 14.75762 14.52184 14.76623 15.54458 15.8186 15.8629 16.44472 16.43223 17.39755 16.99321 16.55463 16.79523 16.52449 15.88211 15.51771 16.19091 15.90901 15.80276 15.53053 15.44825 14.91939 14.62541 14.14794 13.8778 13.40881 13.44035 12.9005 12.05433 11.97978 11.63836 11.63723 11.13101 10.56458 8.622867 7.635687 7.233839 6.633014 6.325005 5.954866 5.759933 5.182709 5.320172 5.094272 5.119144 5.936731 5.512244 5.49622 5.625046 5.624998 5.563387 5.426227 5.160121 4.926256 4.610426 4.276856 3.965866 3.845359 4.160817 3.228816 3.140372 3.077125 3.166361 3.311125 3.700873 3.975082 4.303326 4.513029 4.817652 5.146696 5.066621 4.998463 4.842925 4.766844 4.600702 4.845215 4.225987 3.938272 3.751712 3.757445 3.949881 4.26612 4.754026 5.060047 5.303335 5.441655 5.566889 5.857997 5.717055 5.808105 5.867839 5.754573 5.665152 5.735918 5.678689 5.930523 5.739068 5.665869 5.658541 5.649867 5.496237 5.424489 5.226951 4.890213 4.434771 3.918177 3.550678 3.502861 3.714046 4.068478 4.115472 4.885082 5.732635 6.204912 6.420616 6.406304 6.394865 7.003304 6.501516 6.24594 5.742093 6.207213 6.067732 5.943724 5.744215 5.928413 6.353686 6.820447 7.021232 7.473334 7.832853 8.443119 8.310945 8.680272 8.564981 9.057648 9.270229 9.150979 9.360996 9.804329 9.798301 10.00702 10.22577 10.63649 10.6871 10.85056 11.16138 11.24076 11.12152 11.15362 11.03633 11.09884 11.03173 10.82918 10.5645 10.45042 10.48543 10.99179 11.11297 10.30315 10.38325
-5.623859 -5.626632 -5.646453 -5.680931 -5.729001 -5.785703 -5.840195 -5.873013 -5.864351 -5.824212 -5.78271 -5.749838 -5.724513 -5.716463 -5.713981 -5.71027 -5.701428 -5.684741 -5.664388 -5.63923 -5.625983 -5.615648 -5.607664 -5.583338 -5.580419 -5.569318 -5.561587 -5.548548 -5.540829 -5.523992 -5.48906 -5.454265 -5.451431 -5.447415 -5.407463 -5.37429 -5.353817 -5.312112 -5.231734 -5.191619 -5.179046 -5.162107 -5.096054 -5.034581 -4.954495 -4.873725 -4.828291 -4.816494 -4.790797 -4.743832 -4.678575 -4.586193 -4.518289 -4.473423 -4.36791 -4.311801 -4.244094 -4.127187 -4.00798 -3.967251 -3.933897 -3.89769 -3.853598 -3.76485 -3.752547 -3.760793 -3.745004 -3.663727 -3.514005 -3.397272 -3.343372 -3.324717 -3.29089 -3.161123 -3.043831 -2.915159 -2.780035 -2.722343 -2.669574 -2.58065 -2.528168 -2.501336 -2.499936 -2.460548 -2.386765 -2.297195 -2.217095 -2.174359 -2.164968 -2.161202 -2.1481 -2.133011 -2.121781 -2.112613 -2.100739 -2.10115 -2.10971 -2.116864 -2.119502 -1.118333 -1.133977 -1.11019 -1.158291 -1.030244 -1.077425 -1.015776 -1.030897 -0.9502351 -1.006981 -0.8417695 -0.6529017 0.09600551 -0.06966494 0.1592853 0.3685777 0.2820879 0.3096747 0.4787708 0.5595222 0.4247937 0.3885153 0.463342 0.4345456 0.8697023 1.718681 4.668109 8.816724 9.64177 10.44657 11.48847 11.12372 10.15857 9.465209 9.035034 9.375706 10.17271 11.13662 11.89665 12.13187 12.44018 12.55996 12.38814 12.77522 12.93921 13.30206 13.19415 12.85213 12.26989 11.40676 10.84386 11.49596 12.25653 12.58953 13.62048 13.99953 14.27653 14.34217 14.60613 14.45151 14.26147 14.26576 14.83799 14.84913 14.68021 15.2083 14.68092 14.36945 14.61756 15.08595 15.95319 16.47344 16.831 16.91389 16.9535 16.54154 16.66704 16.90422 17.11396 16.81816 16.7417 16.60336 16.1636 15.97566 15.83683 15.38069 15.06502 14.94337 14.51351 13.79704 13.6273 13.43782 13.17515 12.32347 11.87663 12.17788 11.683 10.76563 8.546159 7.965618 7.610784 7.247403 6.559579 6.368702 5.906203 5.414998 4.870123 5.095712 5.455577 5.425532 5.247678 5.12175 5.42298 5.582568 5.475111 5.240407 4.914814 4.613514 4.28136 4.059763 3.823955 4.057157 3.327356 3.161629 3.159056 2.953327 2.851887 3.432672 3.462757 3.802468 4.030372 4.294138 4.483746 4.753803 4.822008 4.797504 4.649475 4.538241 4.269282 4.443042 3.959609 3.623363 3.302537 3.364494 3.818525 4.30779 4.695415 5.131018 5.200455 5.558063 5.737923 6.045397 5.66537 5.700577 5.624015 5.575579 5.543144 5.639366 5.428181 5.573881 5.609488 5.619724 5.617596 5.532536 5.285633 5.139202 4.986299 4.478398 3.812479 3.546451 3.2963 3.096038 3.319988 3.765965 4.093007 4.760262 5.443021 5.821381 6.012154 6.15821 6.164599 6.14567 6.088272 6.206748 6.171594 5.72556 5.739187 5.505007 5.530161 5.770595 6.298754 6.353166 7.157112 7.581762 7.984846 8.148896 8.512062 8.450743 8.562339 8.91866 8.999102 9.080326 9.413049 9.729417 9.825199 9.963902 10.05707 10.52309 10.62973 10.76751 10.87193 11.06896 11.05675 11.09836 10.95154 11.06467 10.93365 10.44849 10.36015 10.29342 10.23401 10.50708 10.5133 10.10928 10.09764
-5.606852 -5.607016 -5.627348 -5.664634 -5.714389 -5.770434 -5.821487 -5.851357 -5.844988 -5.811607 -5.777254 -5.748609 -5.719634 -5.709723 -5.704748 -5.701149 -5.684676 -5.676946 -5.667508 -5.65823 -5.652325 -5.644061 -5.623506 -5.624904 -5.605575 -5.601823 -5.605742 -5.59268 -5.572468 -5.551482 -5.536022 -5.501147 -5.496092 -5.50428 -5.490708 -5.454254 -5.401103 -5.335285 -5.274912 -5.251842 -5.247107 -5.242434 -5.198729 -5.103361 -5.002335 -4.920541 -4.875834 -4.855144 -4.850738 -4.814365 -4.732824 -4.669025 -4.588715 -4.55583 -4.522666 -4.42292 -4.356404 -4.229572 -4.167441 -4.09982 -4.053447 -4.003346 -3.89333 -3.797359 -3.76491 -3.752693 -3.72447 -3.656037 -3.538099 -3.406406 -3.356123 -3.351318 -3.330693 -3.253392 -3.09055 -2.976831 -2.891794 -2.819386 -2.746554 -2.591708 -2.537949 -2.504188 -2.500156 -2.4649 -2.397544 -2.331149 -2.253441 -2.209634 -2.17909 -2.159964 -2.139642 -2.119496 -2.119843 -2.119505 -2.113282 -2.109796 -2.11268 -2.117541 -2.117443 -1.141737 -1.132856 -1.090567 -1.136402 -1.016535 -1.063966 -1.14111 -1.004001 -0.983333 -0.9391857 -0.8031101 -0.9107194 -0.7749587 -0.1214888 -0.09389603 0.1397466 0.1289186 0.1631176 0.3419507 0.3140372 0.477774 0.3129703 0.2983962 0.3789952 0.4746423 1.031218 4.559713 8.629977 9.232948 10.0699 10.30153 9.817317 9.372561 8.963304 8.676072 8.871048 10.1286 11.15619 11.64571 11.7475 12.06871 12.22583 12.36517 12.47953 12.76896 12.81299 12.48953 12.27457 11.72258 11.02772 10.94778 11.68549 11.83383 12.86141 13.3678 13.83909 13.97007 14.03313 14.37995 13.74502 13.86174 13.96998 13.91843 14.39872 14.63324 14.8589 14.44864 14.48406 14.71056 14.70988 15.70622 15.89528 16.60374 16.22589 16.12744 16.16214 16.11472 16.8394 16.76446 17.24056 16.89915 16.72584 16.65687 16.54091 16.20788 16.01079 15.48777 15.1902 14.92807 14.30274 13.8841 13.63181 13.29413 13.14709 12.85369 12.65496 11.59206 10.17134 8.954816 8.615335 7.967483 7.451142 6.960383 6.564604 6.219188 5.695178 5.248919 4.596395 4.910923 5.170605 5.396043 4.984741 5.34761 5.258452 5.394805 5.146881 4.790819 4.51534 4.059964 3.771446 3.664103 3.72454 2.877437 3.070063 3.005568 2.796133 2.819888 3.381514 3.52315 3.663083 3.866107 4.042555 4.262185 4.462574 4.497671 4.477706 4.458403 4.252583 3.982719 4.438434 4.481944 3.587023 3.071252 3.257791 3.779226 4.313585 4.70027 4.972321 4.832366 5.07521 5.324327 5.831346 5.901826 5.737049 5.389267 5.261721 5.244204 5.300676 5.332772 5.410812 5.500875 5.510625 5.203603 5.173613 5.063087 5.035029 4.785196 4.054695 3.482111 2.841128 3.317632 3.087865 3.315133 3.444554 3.981397 4.736033 5.050055 5.392509 5.550651 5.614534 5.553501 5.72355 6.235451 5.963193 5.473177 5.256757 5.109235 5.308729 5.460949 5.842495 6.461482 7.091664 6.925344 7.308347 7.837967 8.098078 8.118238 8.097397 8.7159 8.967975 8.99814 9.20447 9.474012 9.746344 9.758427 9.908357 10.00282 10.40593 10.77089 10.92282 10.80922 10.78567 10.91371 10.91441 10.8249 10.82827 10.81385 10.29085 10.29549 10.24179 10.05496 10.40098 9.977861 10.26311 9.944831
-5.604702 -5.604993 -5.620192 -5.651229 -5.692039 -5.737508 -5.776944 -5.802686 -5.80034 -5.778828 -5.756589 -5.73515 -5.717237 -5.708915 -5.704525 -5.702001 -5.682113 -5.679574 -5.675009 -5.668849 -5.659775 -5.651701 -5.646873 -5.64748 -5.647085 -5.652404 -5.645351 -5.630549 -5.603517 -5.575231 -5.547691 -5.52713 -5.539192 -5.555888 -5.551612 -5.504802 -5.439639 -5.363528 -5.297192 -5.273403 -5.276418 -5.284454 -5.260085 -5.169041 -5.062953 -4.953678 -4.885607 -4.856958 -4.85394 -4.843408 -4.758348 -4.703401 -4.64258 -4.628609 -4.612291 -4.569845 -4.481703 -4.37713 -4.307949 -4.191535 -4.143319 -4.090628 -4.025076 -3.855462 -3.801758 -3.784577 -3.749714 -3.659229 -3.569503 -3.445325 -3.378329 -3.355223 -3.338963 -3.286926 -3.147586 -3.015828 -2.941233 -2.871656 -2.795298 -2.674726 -2.566334 -2.516232 -2.49734 -2.450848 -2.397192 -2.346642 -2.289234 -2.234044 -2.205686 -2.161497 -2.128172 -2.108329 -2.113625 -2.120423 -2.116557 -2.117299 -2.112582 -2.117273 -2.113644 -2.121647 -1.124548 -1.256437 -1.102479 -1.217377 -1.086328 -1.052382 -1.060321 -0.9967228 -1.024113 -0.9386209 -0.8645988 -0.9328153 -0.6765987 -0.5025726 -0.3511925 0.01956064 -0.0332338 -0.08128166 0.1606485 0.16749 0.2616265 0.2651877 0.1653984 0.3507301 0.718247 4.18595 8.708465 9.449059 10.07386 9.864771 9.315615 8.835129 7.918271 8.478297 8.682425 10.06239 10.63707 11.14636 11.38278 11.7296 11.68401 11.96738 12.26858 12.29056 12.64541 12.11461 11.73117 10.7151 10.30407 10.743 11.15929 11.72721 12.5731 13.12738 13.71598 13.73633 13.92888 14.18704 13.95537 13.31885 13.64267 13.60435 13.3092 13.61815 14.22335 14.94323 14.79829 14.65941 14.81735 15.51007 15.74377 16.17258 16.12518 16.03831 16.32721 16.86507 16.96231 17.15363 17.19636 17.23403 17.00018 17.05461 16.77232 16.63863 16.60754 16.51079 15.71417 15.41749 14.81427 14.19843 13.98302 13.73221 13.26216 12.90076 12.57719 12.05448 10.50012 9.73767 9.029158 8.497213 7.698698 7.268804 6.72082 6.213071 5.925428 5.66891 4.959064 4.433415 4.635892 5.200444 4.715657 5.055521 5.054739 5.186008 5.043223 4.735847 4.404705 3.996552 3.648502 4.00965 3.113109 2.753404 2.860027 2.924208 2.813931 2.64572 3.156237 3.659091 3.741357 3.806246 3.89428 4.048682 4.275426 4.264322 4.226421 4.209691 3.982224 3.886961 4.125594 4.028594 3.902864 2.826013 3.149315 3.606548 4.020946 4.348706 4.547071 4.70208 4.853031 5.251486 5.470346 5.510982 5.687242 5.800035 5.516718 5.374019 5.034867 5.063373 5.146665 5.230264 5.132632 4.994674 4.915273 4.815378 4.664363 4.37306 3.798222 3.132802 2.799667 2.737934 2.602959 3.054192 3.338297 3.88493 4.302509 4.741068 4.989117 4.954524 5.303676 5.568578 5.950844 5.17728 5.159304 4.940355 4.853661 5.001544 5.144516 5.510536 5.847117 6.646596 6.489339 7.143505 7.739321 7.997566 7.91321 8.113806 8.308918 8.583012 8.65639 8.817536 9.528301 9.526642 9.33452 9.58603 9.882832 9.956203 10.26373 10.79356 10.68357 10.69777 10.9085 10.93054 10.7123 10.70551 10.84735 10.33479 10.24412 10.22193 10.10105 10.44715 10.25413 9.874402 9.810138 9.774094
-5.608136 -5.609482 -5.62411 -5.646863 -5.675937 -5.707699 -5.732442 -5.748 -5.748234 -5.740793 -5.73001 -5.712769 -5.703438 -5.69849 -5.696806 -5.697428 -5.69027 -5.693038 -5.692976 -5.68817 -5.672871 -5.662489 -5.656468 -5.655649 -5.663504 -5.678622 -5.684622 -5.669163 -5.629794 -5.593637 -5.561103 -5.539438 -5.552729 -5.573093 -5.572525 -5.533262 -5.470312 -5.391781 -5.312504 -5.284394 -5.283917 -5.29199 -5.27218 -5.206037 -5.089569 -4.982728 -4.911852 -4.874286 -4.862027 -4.850385 -4.796535 -4.731876 -4.704628 -4.699112 -4.695933 -4.679064 -4.612066 -4.507568 -4.445825 -4.399154 -4.303524 -4.25789 -4.150259 -4.068765 -3.952899 -3.884972 -3.806877 -3.745848 -3.602218 -3.482793 -3.41489 -3.375727 -3.333824 -3.267865 -3.19108 -3.080237 -3.022894 -2.969168 -2.865738 -2.760631 -2.632277 -2.53966 -2.504375 -2.462941 -2.392682 -2.352885 -2.310252 -2.260079 -2.227528 -2.184916 -2.135311 -2.115472 -2.116564 -2.120551 -2.119631 -2.118753 -2.116501 -2.11488 -2.108227 -2.103129 -1.249385 -1.128026 -1.151731 -1.133415 -1.163003 -1.031348 -1.091174 -1.081139 -1.064602 -0.896438 -0.9482201 -0.8979422 -0.8702661 -0.7681411 -0.6220956 -0.4327656 -0.2750152 -0.2266351 -0.08332216 -0.0107823 0.1836918 0.2629882 0.2252002 0.2580217 1.032155 4.03472 8.439744 9.09323 9.66411 9.490256 9.079294 7.834465 7.448306 6.967072 7.931504 9.348336 10.06858 10.27423 10.98077 11.35514 11.37652 11.42086 11.94389 12.00748 11.9447 11.76968 11.55534 10.13708 9.991019 10.76948 11.19033 11.93489 12.34278 12.96618 13.46131 13.64303 13.69572 13.72199 13.72847 13.32282 13.34118 13.02595 12.78775 13.13724 13.56396 14.69242 14.86355 15.02193 15.34705 15.20396 15.60796 15.85144 16.03904 15.85929 16.06489 16.16331 16.03045 15.86604 16.41205 17.48026 17.30617 17.19543 17.40884 17.1876 17.24728 16.61259 16.25329 15.86187 15.54212 14.65221 14.44383 13.98085 13.65764 13.20146 12.78115 12.20713 11.34958 10.63187 9.691681 8.894088 8.225421 7.514645 7.028074 6.458116 5.946592 5.335325 4.920503 4.521693 4.936473 5.503871 4.843764 5.032436 4.777049 4.962631 4.834031 4.665506 4.425199 3.972633 3.739826 3.507924 3.080837 2.738466 2.830976 2.976842 2.790831 2.572727 3.21654 3.182688 3.449266 3.63091 4.13283 4.179528 4.155074 4.088389 4.037433 3.899725 3.698863 3.845867 4.08596 3.801273 3.466269 2.557512 3.044106 3.403282 3.692985 3.940264 4.328858 4.490095 4.863929 5.227759 5.122285 5.095701 5.064063 4.997132 5.091408 5.317458 5.333674 5.284376 4.93558 5.06003 4.884713 4.666855 4.666983 4.46592 4.24035 4.116393 3.574767 3.035756 3.033949 2.758454 2.568018 3.148987 3.159092 3.71422 4.172194 4.296365 4.611066 5.372324 4.951934 4.654556 4.495135 4.426156 4.546992 4.689969 4.762712 4.918712 5.402827 5.76285 6.200308 6.812249 6.476726 6.670969 6.927197 7.559034 8.175614 7.919389 8.045249 8.388854 8.645066 8.738976 9.162522 9.581611 9.622121 9.939948 9.768133 9.928022 10.51643 10.35517 10.42955 10.65287 10.56286 10.80673 10.83428 10.55766 10.35676 10.1087 10.08522 9.929186 9.991471 10.70356 9.71172 9.799771 9.826466 9.780971
-5.600525 -5.607249 -5.62133 -5.636621 -5.656544 -5.678326 -5.695234 -5.704902 -5.705614 -5.699591 -5.693199 -5.686314 -5.687698 -5.687109 -5.67823 -5.68504 -5.697533 -5.703914 -5.709387 -5.7047 -5.687536 -5.672153 -5.669219 -5.669228 -5.671933 -5.692461 -5.700402 -5.684075 -5.647099 -5.610264 -5.572864 -5.542774 -5.556366 -5.565425 -5.557578 -5.52468 -5.469726 -5.39814 -5.347071 -5.29282 -5.280634 -5.276559 -5.25414 -5.204659 -5.134643 -5.01514 -4.952204 -4.910936 -4.887443 -4.867106 -4.806952 -4.774276 -4.738239 -4.716792 -4.716795 -4.704194 -4.653576 -4.558052 -4.503701 -4.468949 -4.402486 -4.374737 -4.281042 -4.193694 -4.065807 -3.981175 -3.882052 -3.81622 -3.688419 -3.54688 -3.476744 -3.419286 -3.342251 -3.259443 -3.176807 -3.077486 -3.04585 -3.01335 -2.92876 -2.821255 -2.735481 -2.632742 -2.533123 -2.455005 -2.392164 -2.363921 -2.340502 -2.30513 -2.26346 -2.216173 -2.16488 -2.138333 -2.128604 -2.123212 -2.115714 -2.112673 -2.113912 -2.104684 -2.089245 -2.066091 -1.215393 -1.101015 -1.234515 -1.126274 -1.130522 -1.066464 -1.017689 -1.13192 -0.9761587 -0.8997434 -0.9879655 -0.9015308 -0.8113446 -0.7555785 -0.7173037 -0.5323181 -0.4221089 -0.3620844 -0.2483193 -0.1189755 -0.08418174 -0.03669722 0.003294894 0.1864233 0.9167952 4.546729 7.965081 9.212108 8.998755 9.157708 8.28422 7.476876 6.800117 6.662834 7.452159 8.214514 9.580507 10.00575 10.295 10.80769 10.96329 11.33248 11.37461 11.60806 11.13704 11.34029 10.13628 9.726106 9.532088 10.42118 11.39997 12.02771 12.3485 12.71482 12.92917 13.1842 13.41108 12.96507 13.00346 13.12112 12.75544 12.74373 12.51379 12.65742 12.96889 14.88786 13.17571 12.81779 15.00354 15.13354 15.72728 15.88616 15.93164 16.08855 15.96262 15.48327 15.49683 15.71508 16.84714 17.20598 17.85692 17.86312 17.57671 17.9205 17.54548 16.96634 16.65724 16.32588 16.14226 15.33564 14.76304 14.32949 13.79256 13.38 13.03289 12.57692 12.05696 11.33915 10.11035 9.163557 8.34448 7.689408 7.057087 6.488348 5.929285 5.284782 4.941746 4.700655 4.354764 4.392988 4.392947 4.410999 4.609397 4.745168 4.919827 4.46592 4.204422 3.800573 3.74749 3.375101 3.140914 2.809447 2.855352 2.908415 2.676934 2.996587 3.552043 3.294023 3.707995 3.85609 3.775061 3.999848 3.827703 3.852922 3.734681 3.655046 3.518564 3.855387 3.154302 3.46775 2.801308 2.475144 2.738605 3.134507 3.277753 3.843817 4.174231 4.497963 4.703085 4.748618 4.818324 4.728981 4.742426 4.746579 4.565861 4.59515 4.649093 4.878155 5.129508 4.982595 4.568155 4.308979 4.220169 4.248031 3.802487 3.576647 3.274116 3.11863 2.846662 2.37567 2.719697 3.066434 2.937071 3.483874 3.766765 3.956987 4.035814 4.080338 4.050889 4.198243 4.162727 4.202911 4.396231 4.508209 4.72646 5.220956 5.588256 5.873475 6.510757 6.649893 6.46532 6.643579 6.894589 7.163055 7.719178 7.801189 7.877926 8.508972 8.768264 9.08015 9.236137 9.317196 9.548978 9.48938 9.656902 10.33661 10.38388 10.12983 10.05084 10.32959 10.30391 10.42727 10.73416 10.73545 9.960091 10.01789 9.831758 9.808679 10.33833 10.91023 9.497864 9.479459 9.600755 9.755404
-5.582366 -5.597163 -5.605568 -5.624744 -5.638915 -5.649831 -5.661786 -5.672116 -5.672725 -5.669323 -5.662483 -5.664717 -5.659514 -5.663321 -5.670754 -5.682789 -5.699013 -5.718314 -5.726933 -5.721289 -5.703082 -5.683911 -5.67093 -5.668466 -5.670394 -5.68582 -5.69208 -5.675002 -5.643127 -5.610338 -5.584326 -5.552757 -5.548388 -5.548347 -5.52809 -5.503383 -5.462443 -5.417959 -5.362504 -5.3283 -5.303919 -5.267795 -5.240883 -5.203554 -5.154114 -5.081378 -4.997751 -4.957952 -4.927121 -4.897573 -4.836912 -4.795341 -4.753725 -4.722009 -4.717478 -4.710475 -4.670493 -4.588715 -4.544337 -4.521323 -4.516275 -4.483958 -4.418465 -4.312397 -4.176147 -4.081146 -3.972798 -3.910796 -3.846408 -3.70581 -3.621255 -3.535213 -3.416179 -3.263189 -3.15821 -3.081448 -3.05091 -3.039449 -2.958775 -2.87035 -2.742392 -2.672646 -2.610512 -2.497616 -2.415391 -2.364041 -2.344758 -2.331583 -2.304743 -2.245573 -2.193373 -2.165058 -2.149632 -2.131645 -2.110274 -2.10092 -2.105141 -2.104675 -2.072392 -2.032187 -1.218547 -1.142926 -1.167627 -1.103164 -1.130948 -1.0478 -1.002188 -1.046386 -0.9896973 -0.9936619 -0.9912151 -0.9164301 -0.786477 -0.82897 -0.7952959 -0.7196081 -0.5347031 -0.4787051 -0.3403333 -0.2569047 -0.1762396 -0.1718212 -0.02814639 0.06426088 0.6411771 4.052591 7.763874 8.425312 8.831422 8.785323 7.189742 6.096556 5.468944 5.52352 6.372002 8.115555 8.77002 8.925102 9.59142 10.02423 10.63236 10.86152 10.87961 11.17912 10.82767 10.52332 9.396015 9.118951 9.309477 10.48208 11.50078 11.92683 12.13484 12.24974 12.60829 13.09147 12.73605 12.59739 12.82659 12.73191 12.62728 12.65455 12.13238 12.32213 12.55874 12.60498 12.49741 13.81255 14.33863 14.5975 15.11631 15.79477 15.99905 15.83997 16.63048 15.6416 15.44327 16.23014 17.17129 17.5511 17.43583 18.23682 18.00104 17.83661 17.64792 17.61449 17.00794 16.86712 16.60417 15.88341 15.13077 14.6316 14.02592 13.56019 13.19955 12.71778 12.29041 11.50185 10.6929 9.388178 8.53164 7.713898 7.199705 6.290582 5.801739 5.452196 5.091143 4.405029 4.377204 4.034535 3.959515 4.320046 4.42697 4.35456 4.198059 4.11727 3.809498 3.48268 3.884512 3.004683 2.755414 2.73696 2.802162 2.823207 2.627516 3.637487 3.418685 3.644188 3.431005 3.956233 3.853467 4.125506 3.551269 3.505376 3.486751 3.304999 3.309073 3.495845 3.020238 3.007109 2.977794 2.653421 2.534697 2.768633 3.015948 3.664553 3.924337 4.250131 4.555709 4.896514 4.624984 4.554132 4.503232 4.51594 4.516471 4.181876 4.08125 4.181643 4.240338 4.280443 4.370113 4.242293 3.998011 3.576191 3.389928 3.22293 2.936564 2.876559 2.49336 2.244264 2.398615 3.084206 2.90307 3.122429 3.298365 3.375493 3.633953 3.835872 4.03302 3.824381 3.934026 4.115795 4.349865 4.696689 4.96909 5.346601 5.701591 6.121767 6.639993 6.500397 6.855749 6.83603 7.131184 7.365053 8.049225 8.040671 8.018845 8.343847 8.665749 9.080139 9.105672 9.472636 9.737273 9.66467 10.05103 9.806185 9.839702 10.35269 10.09857 9.97622 9.949615 10.34429 10.3406 9.956133 10.10742 9.910568 9.772409 9.81192 10.2967 9.493335 9.258201 9.272603 9.376116 9.676192
-5.567195 -5.575083 -5.589911 -5.598689 -5.616036 -5.6275 -5.637633 -5.643588 -5.649156 -5.647167 -5.644978 -5.646742 -5.650249 -5.651954 -5.662019 -5.676941 -5.69824 -5.721016 -5.734221 -5.72733 -5.704414 -5.679759 -5.668492 -5.663048 -5.658731 -5.666738 -5.668837 -5.651294 -5.626752 -5.603205 -5.574363 -5.561047 -5.552982 -5.535431 -5.518148 -5.502735 -5.457432 -5.428932 -5.38269 -5.352788 -5.326105 -5.303786 -5.246156 -5.215717 -5.180406 -5.121566 -5.085618 -5.021552 -4.987194 -4.950531 -4.910645 -4.832189 -4.788304 -4.74357 -4.731016 -4.722413 -4.684497 -4.645885 -4.573443 -4.553438 -4.555067 -4.551833 -4.502659 -4.398597 -4.293096 -4.192444 -4.125011 -4.069849 -3.964097 -3.843955 -3.781174 -3.66821 -3.480488 -3.337498 -3.166895 -3.078486 -3.050355 -3.047031 -2.991606 -2.913884 -2.835917 -2.708747 -2.645444 -2.542997 -2.43546 -2.371214 -2.34235 -2.341213 -2.318679 -2.285997 -2.24525 -2.206872 -2.167263 -2.14171 -2.103978 -2.086055 -2.104755 -2.115345 -2.094145 -2.073821 -1.111529 -1.179184 -1.22488 -1.124898 -1.191637 -1.089794 -1.046556 -0.9898998 -1.088066 -0.9595245 -1.019972 -0.9801118 -0.8526934 -0.8139672 -0.8491379 -0.749318 -0.7467788 -0.4686623 -0.5015318 -0.2935325 -0.2215121 -0.1725097 -0.1229702 -0.147601 -0.09647104 1.879486 6.972194 8.099566 8.451881 7.890178 6.892264 4.008225 3.616361 2.593868 3.035965 5.491314 6.84292 8.299181 8.993088 9.634383 10.04522 10.1003 10.48226 10.46846 10.38755 9.045189 8.248034 8.944015 9.257873 10.73885 11.08405 11.48902 11.97588 11.94792 12.16493 12.57034 12.5766 12.27894 12.42606 12.54549 12.38765 12.07493 11.79508 12.04637 11.96992 12.49007 12.97059 13.6585 14.00746 14.67692 14.58029 15.89952 16.2644 16.00187 16.17896 16.48136 15.8978 16.84655 17.06404 17.8113 17.70411 18.10296 18.26921 18.28271 17.85969 17.80932 17.50572 17.2809 16.9117 16.39711 15.58214 14.88637 14.394 13.84033 13.16878 12.79037 12.49001 11.80324 10.72041 9.507779 8.518619 7.851308 6.965636 6.310636 6.037801 5.344876 4.782283 4.333545 3.972236 3.456583 3.984395 4.387047 4.440455 4.342955 3.994861 3.808028 3.525439 3.488196 3.391184 2.7395 2.643394 2.645623 2.693359 2.738559 2.433319 3.739333 3.252502 3.686497 3.439385 3.456293 3.566013 3.631982 3.635684 3.385133 3.312304 3.111837 3.430334 3.094552 2.802378 2.705592 3.035971 2.532826 2.35267 2.550366 2.727455 3.330479 3.712122 4.11929 4.62624 4.753407 4.528306 4.353813 4.229747 4.259125 4.174193 3.882082 3.768209 3.901579 3.880707 4.030394 4.045511 3.716853 3.815361 3.482794 3.168242 3.046653 3.042381 3.015337 2.409506 2.295194 2.377527 2.798438 3.102883 3.001874 3.250077 3.291296 3.57429 3.546912 3.578207 3.928156 4.1469 4.467525 4.714888 4.871546 5.164475 5.519738 5.84726 6.799286 6.529868 6.574118 6.765868 6.941096 7.519156 8.153897 8.042139 7.969468 8.073748 8.360734 8.744982 8.837483 9.166792 9.178948 9.644491 9.742696 9.724179 9.438944 9.647105 10.06043 9.94429 9.984195 9.861734 10.19244 10.13587 9.364178 9.552673 9.454173 9.743501 10.23838 10.09585 9.173386 9.004015 9.013437 9.223885 9.872074
-5.552839 -5.55892 -5.563926 -5.573117 -5.582784 -5.594316 -5.606037 -5.619032 -5.628488 -5.631234 -5.634104 -5.633162 -5.638903 -5.641575 -5.650778 -5.666221 -5.687286 -5.70896 -5.721134 -5.714477 -5.693773 -5.671001 -5.654743 -5.642618 -5.642601 -5.645042 -5.643384 -5.628879 -5.6081 -5.583325 -5.56809 -5.558009 -5.550061 -5.539821 -5.510504 -5.500477 -5.487845 -5.44823 -5.428525 -5.388236 -5.360568 -5.332114 -5.268386 -5.240835 -5.214507 -5.187831 -5.151864 -5.125517 -5.048883 -5.008927 -4.963443 -4.923056 -4.860666 -4.807143 -4.782987 -4.768678 -4.711384 -4.673869 -4.600582 -4.572495 -4.563859 -4.565235 -4.544312 -4.466889 -4.388068 -4.320473 -4.273745 -4.183503 -4.124633 -4.046695 -3.940705 -3.799535 -3.642812 -3.408066 -3.263018 -3.131197 -3.080112 -3.054954 -3.02065 -2.924976 -2.855364 -2.794093 -2.685957 -2.594838 -2.511286 -2.423007 -2.360968 -2.350157 -2.322037 -2.292438 -2.260516 -2.245232 -2.213962 -2.176465 -2.125583 -2.109671 -2.119057 -2.130177 -2.130891 -2.132767 -2.160644 -1.16705 -1.177644 -1.24396 -1.095448 -1.017841 -1.090086 -1.064149 -1.026907 -0.9845294 -1.107533 -0.9772444 -0.93342 -0.9576159 -0.7855767 -0.849542 -0.6458473 -0.5446516 -0.5106963 -0.5629775 -0.2783768 -0.2769622 -0.1226794 -0.1047707 -0.04177273 0.7221414 2.201198 5.884816 7.449987 7.170254 3.221197 2.303392 1.258527 1.41057 1.593707 1.59266 4.869435 4.657654 6.393608 8.504209 8.866831 9.716927 10.13495 10.06789 9.2379 8.27301 7.799654 8.538691 9.177915 10.71041 10.8252 11.20077 11.61006 11.82435 11.99401 12.21909 11.91879 12.15578 12.12433 12.06231 11.91203 11.31217 10.79259 11.22191 11.71449 12.53757 13.07308 13.61562 14.08583 14.24396 15.1945 16.44301 15.73873 16.90582 16.32724 16.46858 18.02659 16.67037 17.62663 17.79534 18.46837 18.46078 18.48763 18.43859 18.66321 18.28992 18.16162 17.66453 17.41037 16.92126 16.04045 15.34684 14.69695 13.86883 13.33659 12.89718 12.21727 11.6451 10.652 9.31324 8.258357 7.522419 6.659285 6.172362 5.620101 4.851508 4.58047 4.22965 3.938199 4.04737 3.538822 3.640152 3.571568 3.642155 3.546576 3.443209 3.239669 3.038695 2.632248 2.637732 2.507878 2.44403 2.356949 2.413908 2.257058 3.397485 3.570539 3.450161 3.224677 3.037469 3.085823 3.314875 3.438492 3.234052 3.242708 3.081343 3.172634 2.951563 2.663869 2.661199 2.956415 2.309059 2.325401 2.712203 2.676491 3.158104 3.567933 3.926457 4.435841 4.212622 4.172646 4.068575 4.107841 3.996551 3.994098 3.766836 3.548105 3.580398 3.44775 3.827397 3.749394 3.636305 3.359503 3.203244 2.858913 2.82809 3.064584 2.589195 2.304096 2.338314 2.374053 2.464799 2.91736 2.74573 2.616904 3.033627 3.28801 3.510593 3.691093 3.926281 4.202913 4.382384 4.794669 5.183417 5.503467 5.795557 6.507538 6.778554 6.540955 6.674197 6.817983 7.159802 7.620568 8.062197 8.360694 7.894325 8.14964 8.320906 8.583208 8.730287 9.087161 9.322882 10.08168 10.09443 9.710384 9.488481 9.501397 10.3136 9.941256 9.784215 10.13142 10.15588 9.528293 9.432716 9.122085 9.23664 9.538491 10.25225 9.000044 9.156749 8.858583 8.993402 9.84766 9.764154
-5.540753 -5.536587 -5.539813 -5.554433 -5.564057 -5.57659 -5.590278 -5.600884 -5.614065 -5.625032 -5.631371 -5.631064 -5.62947 -5.628765 -5.638578 -5.650626 -5.661736 -5.679278 -5.692408 -5.685255 -5.669897 -5.652469 -5.63577 -5.628248 -5.625363 -5.624071 -5.621085 -5.599183 -5.588621 -5.577677 -5.56034 -5.552835 -5.543612 -5.539007 -5.511784 -5.507813 -5.504265 -5.49928 -5.467964 -5.432567 -5.402424 -5.361991 -5.330335 -5.30463 -5.261388 -5.247495 -5.214645 -5.196211 -5.165504 -5.081855 -5.060484 -5.014215 -4.933985 -4.900925 -4.849624 -4.828642 -4.801457 -4.728147 -4.677881 -4.621687 -4.589202 -4.570327 -4.551441 -4.483945 -4.424713 -4.37116 -4.33795 -4.32738 -4.285879 -4.227559 -4.108856 -3.940246 -3.747499 -3.572906 -3.382588 -3.244954 -3.186801 -3.080697 -3.03285 -2.967769 -2.901261 -2.80625 -2.766746 -2.685385 -2.601547 -2.516886 -2.400538 -2.372165 -2.327146 -2.291954 -2.262169 -2.257013 -2.239521 -2.207512 -2.160024 -2.145195 -2.141735 -2.145888 -2.14952 -2.156918 -2.189751 -1.185986 -1.229447 -1.183872 -1.188476 -1.099229 -1.145504 -1.02562 -1.037185 -1.04109 -1.094695 -1.001714 -0.9382988 -0.9955151 -0.9422627 -0.7548724 -0.7521773 -0.603654 -0.5122775 -0.4326481 -0.4535857 -0.357444 -0.4054565 -0.1216513 -0.1060361 -0.05694994 1.136966 1.947174 2.978861 2.412137 2.181488 1.545432 0.8850475 1.126087 0.8472445 1.25573 1.937401 3.362406 4.52166 4.258894 4.347307 3.916021 4.982615 8.39849 8.393357 7.360331 7.004616 7.877984 9.941943 10.39755 10.66133 10.99037 10.84514 11.32614 11.23829 11.45759 11.53739 11.55873 11.37105 11.31154 10.82711 10.56798 10.42572 10.32228 11.6138 12.09502 12.73663 13.14283 13.73442 13.98378 14.44135 15.13639 15.51952 15.93608 17.45288 17.51145 16.69032 16.65947 18.29766 17.99383 18.405 18.68606 18.79873 18.85801 18.92849 19.24183 18.64072 18.25557 17.83792 17.3037 16.50616 15.74434 14.82291 14.157 13.47139 12.69695 12.12397 11.14163 9.900819 9.117133 7.774917 6.940019 6.474581 5.877157 4.905943 4.650448 4.712878 4.170712 3.856728 3.513801 2.887071 3.453764 3.428025 3.450146 3.264201 3.124473 2.810709 2.750257 2.647573 2.793197 2.695427 2.646395 2.650721 2.623599 2.505195 2.921848 3.310078 3.034155 3.065977 2.664038 2.669306 2.815426 2.880138 2.927096 2.978371 2.941357 2.909738 2.811035 2.534557 2.818182 2.411191 2.227704 2.249781 2.611938 2.521756 2.929457 3.096983 3.419983 3.773035 3.732909 3.722883 3.786333 3.901707 3.886934 3.785014 3.463403 3.127909 3.148279 3.225063 3.414687 3.662639 3.257347 3.024092 2.78704 2.725589 2.773334 2.3253 2.303039 2.254429 2.225095 2.393259 2.338559 2.3211 3.002496 3.197779 3.333538 3.352852 3.496594 3.71319 4.136391 4.439574 4.726357 5.130765 5.426206 5.749187 6.175047 7.122762 6.570185 6.615036 6.874824 7.066423 7.362504 7.94069 8.038796 7.8174 8.00581 8.188216 8.3284 8.536785 9.033422 9.157105 9.292174 9.930896 9.797442 9.529958 9.473742 9.399046 9.382484 9.463874 9.797668 9.739254 9.520471 9.32668 9.216343 9.044623 8.957352 9.751552 9.06808 8.690393 8.727529 8.638997 8.91193 9.192867 9.394547
-5.525364 -5.528319 -5.529827 -5.536396 -5.54794 -5.560951 -5.575833 -5.588855 -5.605354 -5.620265 -5.629645 -5.629061 -5.621805 -5.618793 -5.619156 -5.624195 -5.635063 -5.646346 -5.652608 -5.651285 -5.641068 -5.62921 -5.614587 -5.608822 -5.608142 -5.605455 -5.594259 -5.579744 -5.571939 -5.564426 -5.558551 -5.549485 -5.546697 -5.54554 -5.524297 -5.521312 -5.528256 -5.535203 -5.534373 -5.501932 -5.474747 -5.420806 -5.37132 -5.341741 -5.323265 -5.300364 -5.277805 -5.268162 -5.255178 -5.179335 -5.129318 -5.086301 -5.053039 -5.037858 -4.933559 -4.921793 -4.889857 -4.845346 -4.744781 -4.71091 -4.666283 -4.605796 -4.576245 -4.54695 -4.461235 -4.414361 -4.3804 -4.37993 -4.3948 -4.371972 -4.238876 -4.07003 -3.85697 -3.688427 -3.501598 -3.360128 -3.287099 -3.191463 -3.055529 -2.971715 -2.890993 -2.835354 -2.79308 -2.748857 -2.672693 -2.592349 -2.483699 -2.403028 -2.343237 -2.293143 -2.263103 -2.259584 -2.258055 -2.24451 -2.222399 -2.184341 -2.166461 -2.157186 -2.152388 -2.15618 -2.183535 -1.215383 -1.171308 -1.086268 -1.118079 -1.113749 -1.054541 -1.004584 -0.943796 -1.091665 -1.030343 -1.09193 -1.039782 -0.8872071 -0.9212115 -0.8199813 -0.7127582 -0.6752593 -0.6340578 -0.6178761 -0.4496122 -0.3778455 -0.39706 -0.3269331 -0.1323821 -0.1605127 0.2706582 1.300846 1.081456 1.235546 1.087798 0.7230572 0.6285835 0.6079051 0.7577908 1.177325 1.627008 1.962909 2.394428 4.251431 3.968762 3.953385 3.897163 4.052214 4.745773 6.081017 7.261986 8.057296 9.612767 9.515469 10.35351 10.52274 10.78039 10.88824 10.86296 11.08911 11.22695 11.13754 10.76508 10.60297 9.996543 10.09275 9.682696 9.939166 11.04599 11.78371 12.27529 12.61397 13.16053 13.38465 13.99695 14.67896 15.38822 16.11597 16.21512 17.46436 18.46479 17.89217 18.39934 18.19621 18.45566 18.68471 18.97553 19.44419 19.38038 19.35138 19.22931 18.60636 18.19483 17.82783 16.93966 15.96321 15.21036 14.40703 13.48603 12.75556 11.99295 10.88905 9.703462 8.556764 7.69226 6.809361 6.60166 5.658359 5.125795 4.65697 4.182313 3.950938 3.835418 3.650979 3.491416 3.253336 3.143143 3.107312 2.715126 2.58858 2.538133 2.412758 2.251872 2.529915 2.516695 2.60841 2.431714 2.488717 2.267562 2.271719 2.471558 2.604906 2.602623 2.371162 2.648138 2.504469 2.45728 2.774501 2.733148 2.708328 2.697423 2.515007 2.535576 2.826814 2.518732 2.278271 2.3428 2.400564 2.52551 2.788777 2.852334 3.012848 3.231535 3.416568 3.517849 3.37327 3.554028 3.62395 3.451818 3.201894 2.962173 2.783643 2.725375 3.007496 2.918217 2.826954 2.80321 2.703396 2.997409 2.489945 2.783347 2.227488 2.232136 2.203891 2.248843 2.336332 2.35655 3.353647 3.230568 3.299491 3.599161 3.849476 4.162541 4.564229 4.870917 5.192434 5.610576 5.802796 6.004272 6.435947 7.007856 6.655075 6.858514 6.957739 7.175662 7.554571 7.754307 7.851644 7.995068 8.069448 8.268826 8.453847 8.755877 8.905545 9.173547 9.363964 9.453356 9.278072 9.322109 9.519941 9.449931 9.461565 9.149937 9.037051 9.42415 9.118848 9.164962 9.028429 8.917927 9.256161 11.06573 8.518516 8.656203 8.465834 8.570249 8.79661 8.86688 8.994664
-5.52114 -5.524948 -5.52603 -5.52798 -5.536759 -5.54819 -5.55921 -5.57452 -5.590796 -5.605717 -5.612075 -5.615233 -5.607872 -5.599841 -5.59906 -5.600426 -5.606462 -5.613589 -5.613093 -5.612056 -5.599938 -5.593606 -5.594013 -5.590281 -5.580866 -5.578777 -5.575639 -5.564912 -5.558532 -5.54961 -5.546076 -5.543524 -5.543042 -5.544487 -5.537545 -5.534908 -5.55419 -5.579263 -5.58445 -5.560581 -5.517238 -5.466454 -5.397955 -5.363494 -5.344778 -5.340976 -5.345638 -5.335461 -5.310164 -5.269173 -5.229327 -5.192347 -5.171679 -5.159249 -5.075512 -5.052823 -4.989492 -4.965364 -4.909281 -4.805871 -4.762496 -4.717829 -4.63417 -4.609504 -4.562885 -4.454309 -4.412768 -4.40044 -4.41196 -4.399477 -4.290662 -4.130123 -3.968648 -3.829401 -3.615846 -3.478721 -3.360316 -3.270548 -3.164117 -2.987317 -2.878601 -2.821141 -2.811509 -2.785203 -2.724713 -2.65531 -2.592346 -2.490231 -2.408185 -2.34833 -2.307377 -2.296759 -2.287549 -2.276174 -2.260369 -2.234121 -2.181053 -2.154064 -2.137416 -2.149181 -2.170873 -1.095031 -1.247734 -1.091842 -1.208648 -1.129477 -1.324667 -1.038989 -1.03727 -1.039743 -1.099375 -1.055042 -1.059092 -0.9958743 -0.8891199 -0.8236264 -0.8445749 -0.7217153 -0.7386485 -0.6570049 -0.6096861 -0.5052275 -0.4243149 -0.4067439 -0.2724701 -0.2821624 -0.2543572 0.02843318 0.2103016 0.172133 0.3487737 0.3147689 0.306392 0.4082981 0.4420941 0.7903577 1.289197 1.669589 2.160696 2.274302 2.247318 2.261066 2.493535 2.475427 2.426495 3.828914 6.071343 8.744616 9.064705 9.313251 9.830458 10.03568 10.31952 10.50457 10.49709 10.46004 10.4268 10.47418 10.14969 9.833961 9.385361 9.294463 8.874788 9.533839 10.88649 11.44764 11.8823 12.23855 12.95188 13.5831 14.15818 14.39786 15.12248 16.28525 16.12981 17.6664 17.61271 18.90875 19.11354 19.26227 18.78389 19.10959 19.4685 19.59104 19.74782 19.66268 19.38806 19.06001 18.57989 18.18445 17.40828 16.41776 15.62729 14.52278 13.6713 12.93837 12.00242 10.78943 9.512138 8.686763 7.860574 7.46327 6.237013 5.509692 5.314966 4.941165 4.550293 4.119112 3.929057 3.546304 3.575238 3.001662 2.961812 2.849954 2.691929 2.664899 2.515483 2.342657 2.376706 2.35222 2.311213 2.263274 2.353026 2.424724 2.373247 2.2995 2.309678 2.275454 2.18365 2.263033 2.254405 2.274578 2.490539 2.572729 2.405093 2.416456 2.396873 2.558711 2.367652 2.428628 2.54458 2.531045 2.598959 2.416615 2.357739 2.572576 2.687943 2.701012 2.929605 2.920759 3.149287 3.23272 3.306912 3.288346 3.219369 3.010353 2.859674 2.71897 2.663994 2.764411 2.608189 2.553519 2.730721 2.665607 2.390039 2.160495 2.194008 2.490065 2.162047 2.301525 2.374532 2.954742 3.292877 2.914104 3.131553 3.628189 3.92217 4.387582 4.542304 4.939942 5.150408 5.553902 5.852276 6.041692 6.250805 6.646885 6.581762 6.969788 6.932511 7.049518 7.195812 7.688845 7.63196 7.741921 7.941522 7.988078 8.173624 8.333665 8.538742 8.690299 9.038218 9.520898 9.097248 9.277887 9.28076 9.401222 9.43 9.279997 9.39781 8.876378 8.813162 8.745003 8.947185 8.803997 8.680488 9.030644 8.60655 8.177005 8.352543 8.198947 8.552073 8.664726 8.640266 9.129874
-5.517491 -5.523649 -5.52591 -5.526004 -5.52509 -5.528339 -5.535684 -5.557778 -5.570837 -5.576442 -5.580606 -5.579564 -5.58389 -5.568509 -5.560616 -5.559525 -5.569712 -5.575122 -5.579729 -5.582684 -5.575014 -5.572803 -5.575784 -5.568239 -5.566967 -5.565292 -5.562434 -5.551228 -5.54373 -5.540503 -5.539607 -5.538948 -5.539711 -5.542727 -5.540214 -5.550612 -5.578604 -5.611045 -5.626681 -5.603207 -5.549883 -5.489388 -5.436803 -5.378655 -5.357414 -5.353661 -5.361437 -5.363035 -5.346936 -5.30082 -5.267659 -5.241836 -5.235607 -5.251186 -5.214217 -5.167295 -5.123754 -5.069668 -5.014267 -4.966411 -4.875914 -4.827251 -4.738091 -4.696506 -4.639221 -4.569071 -4.451688 -4.414605 -4.401395 -4.370716 -4.269711 -4.145814 -4.019003 -3.902412 -3.787888 -3.655142 -3.487638 -3.37743 -3.243243 -3.089115 -2.912308 -2.840691 -2.824666 -2.79965 -2.778544 -2.732787 -2.684965 -2.583469 -2.516444 -2.449172 -2.374826 -2.355233 -2.352521 -2.344247 -2.308538 -2.272974 -2.219411 -2.16496 -2.145491 -2.152003 -2.159458 -2.16515 -1.224635 -1.253984 -1.105194 -1.059378 -1.090441 -1.18799 -1.104798 -1.090495 -1.149088 -0.9921312 -1.010678 -0.9902449 -0.8698508 -0.8964485 -0.7717401 -0.7728124 -0.7710103 -0.604491 -0.5885508 -0.6472365 -0.4821056 -0.3832345 -0.3524364 -0.271043 -0.30912 -0.2195337 -0.00638552 0.06022793 0.1197854 0.2242289 0.1893647 0.3649766 0.2932496 0.4065329 0.9671017 1.492077 1.637302 1.823354 1.646905 1.598519 1.478595 1.501942 1.472653 2.033793 3.203218 7.432602 8.103588 9.48676 9.688302 9.87665 10.04363 10.13073 10.22321 10.14104 10.0179 9.852135 9.500581 8.990415 8.783828 8.275295 7.781699 10.0306 10.68349 10.63337 11.05448 12.10353 12.52196 13.53428 14.11718 14.14156 15.30404 15.92258 16.26708 16.20607 17.00872 17.72202 18.56077 19.83 19.7501 20.47571 20.28171 20.03767 20.08378 19.93241 19.74012 19.46659 19.01247 18.44002 17.65584 16.93255 15.95591 14.87361 13.84054 13.12999 12.17576 10.90851 9.814169 9.106222 8.215191 6.962877 6.107254 5.661337 5.18707 5.04482 4.829477 4.48973 4.204935 4.076321 3.928202 3.51286 3.661519 3.742933 3.403617 3.194211 3.365705 3.242518 2.995577 2.461147 2.272108 2.2721 2.402363 2.427505 2.311647 2.373622 2.292761 2.272892 2.256414 2.185257 2.249694 2.580594 2.460397 2.310253 2.301308 2.414991 2.334014 2.337174 2.330984 2.410821 2.588698 2.439111 2.347436 2.301518 2.42468 2.74551 2.518275 2.541538 2.645663 2.644151 2.753745 3.00852 3.153437 3.048019 3.018443 2.767899 2.58262 2.454959 2.536783 2.848935 2.943935 3.025611 2.777704 2.211946 2.096071 2.13395 2.29818 2.295627 2.37242 2.638002 2.752397 3.341772 2.978132 3.126063 3.408283 3.705436 4.166023 4.532508 4.930798 5.190779 5.325605 5.589214 5.933767 6.184686 6.414895 6.52125 6.576468 6.849822 7.077812 7.16233 7.295019 7.807755 7.686969 7.756173 7.916582 7.981208 8.082845 8.245554 8.493484 8.719473 9.258173 9.312648 9.108858 9.109382 9.348188 9.363196 9.203102 9.189527 9.12709 8.626537 7.943613 8.418662 8.281078 8.475342 8.50174 8.499842 8.895416 8.279664 8.136645 8.032505 8.569554 8.644194 8.566416 8.823851
-5.502767 -5.514252 -5.520737 -5.518997 -5.511881 -5.517067 -5.515967 -5.521621 -5.529896 -5.53819 -5.545838 -5.543929 -5.536634 -5.529959 -5.527018 -5.525395 -5.536716 -5.544064 -5.551979 -5.547814 -5.55705 -5.557073 -5.556614 -5.559216 -5.558039 -5.55593 -5.552889 -5.540152 -5.537706 -5.536649 -5.536505 -5.536728 -5.537354 -5.53296 -5.539397 -5.551832 -5.58294 -5.618987 -5.636707 -5.616034 -5.55908 -5.497848 -5.441799 -5.407179 -5.381043 -5.367575 -5.361404 -5.361528 -5.349749 -5.330528 -5.292992 -5.280294 -5.298433 -5.316323 -5.329858 -5.279674 -5.230732 -5.169127 -5.114148 -5.075359 -5.018716 -5.003205 -4.914813 -4.864591 -4.79199 -4.702545 -4.551233 -4.481347 -4.423701 -4.388975 -4.339414 -4.212938 -4.126046 -4.050056 -3.916454 -3.860401 -3.78 -3.588702 -3.430256 -3.256787 -3.044751 -2.911583 -2.882513 -2.838886 -2.81488 -2.784449 -2.744719 -2.693229 -2.611656 -2.541167 -2.445476 -2.410342 -2.395585 -2.39084 -2.381527 -2.337896 -2.280702 -2.228359 -2.171287 -2.162675 -2.150744 -2.137111 -1.177464 -1.276266 -1.158382 -1.121167 -1.185301 -1.093637 -1.062944 -1.023664 -1.12774 -1.044413 -1.049079 -1.011937 -0.91695 -0.8851876 -0.8130882 -0.7643023 -0.8560418 -0.7103131 -0.5681068 -0.5595254 -0.5778145 -0.489529 -0.4899968 -0.4490448 -0.3797085 -0.2407805 -0.2219495 0.006733513 0.08613749 0.1526413 0.1850723 0.2479868 0.339936 0.3765545 0.4657714 1.159069 1.113566 0.998118 0.7974953 0.7902617 0.7653117 0.8133046 1.011973 1.28105 2.453022 7.089533 9.057533 9.508364 9.46686 9.707915 9.907466 9.758528 9.895276 9.837718 9.559899 9.697599 9.039538 8.445685 7.772078 6.954557 7.798139 8.896366 10.34702 10.53878 10.50725 11.133 12.26414 13.62429 13.67874 14.20035 15.35316 16.01258 16.3756 16.55684 16.87601 17.29571 18.386 19.23463 20.08466 20.30193 20.36915 20.09844 20.35865 20.18919 20.0522 19.80612 19.25154 18.86109 18.25089 17.45765 16.4682 15.35961 14.19489 13.08109 12.379 11.61213 10.90899 9.218437 8.164737 7.42591 6.588927 5.922977 5.49751 5.167618 5.129879 4.914718 5.088659 4.965536 4.318223 3.962915 3.809492 3.792808 3.720662 3.871461 3.628032 3.818217 3.238755 3.240437 3.211492 3.203956 2.602204 2.332798 2.513176 2.517728 2.201357 2.147374 2.262487 2.512115 2.252575 2.365157 2.229341 2.218986 2.262239 2.309981 2.305111 2.2375 2.211968 2.359451 2.270375 2.161059 2.213508 2.2361 2.327995 2.480292 2.52323 2.363681 2.460494 2.585377 2.703392 2.865764 3.080863 2.840013 2.697921 2.7359 2.6764 2.978608 2.994102 2.570832 2.573915 2.348138 2.21968 2.135662 2.097552 2.101447 2.305853 2.264344 2.631558 2.866661 3.026231 2.729567 3.035764 3.287045 3.618522 3.893107 4.331686 4.622772 4.901956 5.197316 5.492987 5.802597 6.024286 6.275197 6.43981 6.416722 6.419754 6.721907 6.915454 7.389454 7.677433 7.862618 7.666036 7.803269 7.829582 7.937501 8.037309 8.239451 8.388402 8.730798 9.467565 8.757084 8.989787 9.103095 9.185961 9.150469 8.901542 8.807365 8.823021 8.506126 8.015588 8.134201 7.848707 7.960096 8.30675 8.178015 7.845912 8.095867 8.250738 8.114146 8.040417 8.607006 8.705005 8.909652
