ncols         370
nrows         32
xllcorner     382067.51207
yllcorner     6548350.2706
cellsize      20.000000
NODATA_value  -9999.000000
10000000000.000	10000000000.000	10000000000.000	10000000000.000	10000000000.000	10000000000.000	10000000000.000	10000000000.000	10000000000.000	10000000000.000	10000000000.000	10000000000.000	10000000000.000	10000000000.000	10000000000.000	10000000000.000	10000000000.000	10000000000.000	10000000000.000	10000000000.000	10000000000.000	10000000000.000	10000000000.000	10000000000.000	10000000000.000	10000000000.000	10000000000.000	10000000000.000	10000000000.000	10000000000.000	10000000000.000	10000000000.000	10000000000.000	10000000000.000	10000000000.000	10000000000.000	10000000000.000	10000000000.000	10000000000.000	10000000000.000	10000000000.000	10000000000.000	10000000000.000	10000000000.000	10000000000.000	10000000000.000	10000000000.000	10000000000.000	10000000000.000	10000000000.000	10000000000.000	10000000000.000	10000000000.000	10000000000.000	10000000000.000	10000000000.000	10000000000.000	10000000000.000	10000000000.000	-7.712	-7.510	-7.177	-6.442	-5.702	-4.829	-4.335	-4.065	-3.853	-3.727	-3.598	-3.431	-3.287	-3.203	-3.194	-3.184	-3.184	-2.315	-2.315	-2.315	-2.315	-0.355	-0.355	-0.355	-0.355	-0.355	-0.006	-0.006	0.223	0.223	0.223	0.312	0.312	0.492	0.492	0.801	0.951	1.631	3.410	3.220	1.600	1.569	1.749	1.749	1.749	2.248	2.268	2.268	2.147	2.147	2.147	2.147	2.065	2.065	2.065	2.065	2.065	1.934	1.934	1.934	1.934	1.934	1.934	2.132	2.132	2.132	2.132	2.132	2.132	2.132	2.132	1.799	1.799	1.799	1.799	1.799	1.799	1.799	1.977	1.977	1.977	1.977	1.977	2.025	2.025	2.025	2.025	2.025	2.025	2.323	2.323	2.323	2.323	2.323	2.323	2.323	2.323	2.323	2.651	2.651	2.651	2.651	2.651	2.651	2.651	2.651	3.028	3.028	3.028	3.028	3.028	3.028	3.028	3.028	3.028	2.846	3.786	3.786	3.786	3.786	3.164	3.164	3.164	3.164	3.164	3.164	3.164	3.164	2.531	2.531	2.531	2.531	2.531	2.531	2.531	2.531	2.531	2.531	2.539	2.539	2.937	2.937	2.937	2.937	2.937	2.937	2.937	2.937	2.937	2.937	4.485	3.834	3.834	3.834	3.834	3.834	3.834	3.834	6.332	6.332	6.332	6.332	6.332	6.332	6.332	8.691	8.691	8.691	3.519	3.519	3.519	3.519	3.519	3.519	3.519	3.519	3.519	3.519	2.197	2.365	2.365	2.365	2.365	2.365	2.365	2.365	2.365	2.365	2.365	2.323	2.323	2.323	2.323	2.323	2.321	2.321	2.321	2.321	2.321	2.321	2.321	2.189	2.189	2.189	2.189	2.189	2.189	2.189	2.189	2.056	2.056	2.056	2.056	2.056	2.056	2.056	2.265	2.265	2.265	2.265	2.265	2.453	2.453	2.453	2.102	2.102	2.102	2.102	2.102	2.102	2.030	2.030	2.030	2.030	2.030	2.030	2.030	2.030	2.087	2.087	2.087	2.087	2.087	2.087	2.087	2.175	2.175	2.175	2.175	2.104	2.104	2.104	2.104	2.104	2.104	1.982	1.982	1.982	1.982	1.982	2.031	2.031	2.031	2.031	2.031	2.150	2.149	2.149	2.149	2.149	2.078	2.078	2.078	1.947	1.947	1.947	1.746	2.036	2.036	2.036	2.235	2.285	2.244	2.244	2.144	3.414	3.023	2.093	1.943	1.452	1.372	1.432	2.291	0.591	-1.249	-1.350	-1.350	-1.135	-1.407	-2.045	-2.813	-3.607	-4.186	-4.588	-4.900	-5.239	-5.675	-6.373	-7.400	-8.174	-8.650
10000000000.000	10000000000.000	10000000000.000	10000000000.000	10000000000.000	10000000000.000	10000000000.000	10000000000.000	10000000000.000	10000000000.000	10000000000.000	10000000000.000	10000000000.000	10000000000.000	10000000000.000	10000000000.000	10000000000.000	10000000000.000	10000000000.000	10000000000.000	10000000000.000	10000000000.000	10000000000.000	10000000000.000	10000000000.000	10000000000.000	10000000000.000	10000000000.000	10000000000.000	10000000000.000	10000000000.000	10000000000.000	10000000000.000	10000000000.000	10000000000.000	10000000000.000	10000000000.000	10000000000.000	10000000000.000	10000000000.000	10000000000.000	10000000000.000	10000000000.000	10000000000.000	10000000000.000	10000000000.000	10000000000.000	10000000000.000	10000000000.000	10000000000.000	10000000000.000	10000000000.000	10000000000.000	10000000000.000	10000000000.000	10000000000.000	10000000000.000	10000000000.000	10000000000.000	-7.944	-7.814	-7.619	-7.068	-6.325	-5.529	-4.731	-4.356	-4.101	-3.896	-3.694	-3.550	-3.381	-3.247	-3.202	-3.184	-3.195	-3.164	-2.315	-2.315	-0.355	-0.355	-0.355	-0.355	-0.355	0.114	0.114	0.114	0.223	0.223	0.223	0.223	0.492	0.492	0.492	0.721	1.111	2.051	3.420	3.230	1.930	1.570	1.709	1.749	2.248	2.248	2.268	2.268	2.268	2.147	2.147	2.147	2.065	2.065	2.065	2.065	2.065	1.934	1.934	1.934	1.934	1.934	1.934	2.132	2.132	2.132	2.132	2.132	2.132	2.132	2.132	1.799	1.799	1.799	1.799	1.799	1.799	1.988	1.988	1.988	1.988	1.988	2.025	2.025	2.025	2.025	2.025	2.025	2.025	2.025	2.323	2.323	2.323	2.323	2.323	2.323	2.323	2.323	2.651	2.651	2.651	2.651	2.651	2.651	2.651	2.651	2.651	3.028	3.028	3.028	3.028	3.028	3.028	2.846	2.846	2.846	2.846	2.846	2.846	3.164	3.164	3.164	3.164	3.164	3.164	3.164	3.164	3.164	3.164	2.531	2.531	2.531	2.531	2.531	2.531	2.531	2.531	2.531	2.531	2.937	2.937	2.937	2.937	2.937	2.937	2.937	2.937	2.937	2.937	4.485	4.485	4.485	4.485	3.834	3.834	3.834	3.834	6.332	6.332	6.332	6.332	6.332	6.332	6.332	6.332	6.332	6.332	3.519	3.519	3.519	3.519	3.519	3.519	3.519	3.519	3.519	3.519	2.197	2.197	2.197	2.365	2.365	2.365	2.365	2.365	2.365	2.365	2.365	2.323	2.323	2.323	2.323	2.323	2.323	2.323	2.321	2.321	2.321	2.321	2.321	2.189	2.189	2.189	2.189	2.189	2.189	2.189	2.189	2.189	2.056	2.056	2.056	2.056	2.056	2.056	2.056	2.056	2.314	2.314	2.314	2.453	2.453	2.453	2.453	2.453	2.453	2.453	2.453	2.141	2.141	2.141	2.030	2.030	2.030	2.030	1.909	1.909	1.909	1.909	2.087	2.087	2.087	2.087	2.087	2.175	2.175	2.175	2.175	2.175	2.175	2.104	2.104	2.104	2.104	2.104	1.982	1.982	1.982	1.982	1.982	2.031	2.031	2.031	2.031	2.031	2.440	2.149	2.149	2.149	2.149	2.078	2.078	2.078	1.947	1.947	1.746	1.746	1.746	2.036	1.955	1.955	2.285	2.274	2.204	3.074	3.164	2.113	2.093	1.613	1.492	1.442	2.142	2.101	2.241	-0.289	-0.289	-0.912	-1.045	-1.593	-2.355	-3.290	-3.919	-4.382	-4.736	-3.953	-5.385	-6.037	-6.816	-7.684	-8.354	-8.748
10000000000.000	10000000000.000	10000000000.000	10000000000.000	10000000000.000	10000000000.000	10000000000.000	10000000000.000	10000000000.000	10000000000.000	10000000000.000	10000000000.000	10000000000.000	10000000000.000	10000000000.000	10000000000.000	10000000000.000	10000000000.000	10000000000.000	10000000000.000	10000000000.000	10000000000.000	10000000000.000	10000000000.000	10000000000.000	10000000000.000	10000000000.000	10000000000.000	10000000000.000	10000000000.000	10000000000.000	10000000000.000	10000000000.000	10000000000.000	10000000000.000	10000000000.000	10000000000.000	10000000000.000	10000000000.000	10000000000.000	10000000000.000	10000000000.000	10000000000.000	10000000000.000	10000000000.000	10000000000.000	10000000000.000	10000000000.000	10000000000.000	10000000000.000	10000000000.000	10000000000.000	10000000000.000	10000000000.000	10000000000.000	10000000000.000	10000000000.000	10000000000.000	10000000000.000	-8.007	-8.012	-7.923	-7.627	-6.900	-6.161	-5.487	-4.946	-4.423	-4.019	-3.800	-3.645	-3.518	-3.392	-3.224	-3.196	-3.164	-3.146	-3.441	-3.441	-3.441	-3.441	-0.355	-0.355	0.114	0.114	0.114	0.114	0.114	0.223	0.223	0.412	0.412	0.492	0.492	0.721	1.071	1.801	3.720	3.460	1.980	1.609	1.669	1.759	1.759	2.248	2.268	2.177	2.177	2.216	2.216	2.216	2.216	2.065	2.065	2.065	2.065	2.065	1.934	1.934	1.934	1.623	1.623	2.132	2.132	2.132	2.132	2.132	2.132	2.132	2.132	1.799	1.799	1.799	1.799	1.988	1.988	1.988	1.988	1.988	1.988	1.988	2.025	2.025	2.025	2.025	2.025	2.025	2.025	2.025	2.323	2.323	2.323	2.323	2.323	2.323	2.323	2.323	2.651	2.651	2.651	2.651	2.651	2.651	2.651	2.651	2.651	3.028	3.028	3.028	3.028	3.028	2.846	2.846	2.846	2.846	2.846	2.846	2.846	2.846	3.164	3.164	3.164	3.164	3.164	3.164	3.164	3.164	3.164	2.531	2.531	2.531	2.531	2.531	2.531	2.531	2.531	2.531	2.529	2.937	2.937	2.937	2.937	2.937	2.937	2.937	2.937	2.937	2.937	4.485	4.485	4.485	4.485	4.485	4.485	3.834	6.332	6.332	6.332	6.332	6.332	6.332	6.332	6.332	6.332	6.332	6.332	3.519	3.519	3.519	3.519	3.519	3.519	3.519	3.519	3.519	2.197	2.197	2.197	2.197	2.197	2.365	2.365	2.365	2.365	2.365	2.365	2.323	2.323	2.323	2.323	2.323	2.323	2.323	2.323	2.323	2.321	2.321	2.321	2.189	2.189	2.189	2.189	2.189	2.189	2.189	2.189	2.189	2.056	2.056	2.056	2.056	2.056	2.056	2.056	2.056	2.314	2.314	2.314	2.314	2.453	2.453	2.453	2.453	2.453	2.453	2.453	2.453	2.141	2.141	2.141	2.141	2.141	1.909	1.909	1.909	1.909	1.909	1.909	1.909	2.137	2.137	2.137	2.175	2.175	2.175	2.175	2.175	2.175	2.175	2.104	2.104	2.104	2.104	2.104	1.982	1.982	1.982	1.982	1.982	2.031	2.031	2.031	2.440	2.440	2.440	2.149	2.149	2.149	2.149	2.078	2.078	2.078	2.297	1.997	1.746	1.746	1.746	1.765	1.765	1.955	2.015	2.254	2.804	3.024	2.224	2.083	2.133	2.373	1.492	2.352	2.291	2.291	2.241	2.421	-1.200	-1.200	-1.155	-2.074	-2.966	-3.728	-4.251	-4.543	-4.870	-5.316	-5.806	-6.449	-7.109	-7.929	-8.558	-8.804
10000000000.000	10000000000.000	10000000000.000	10000000000.000	10000000000.000	10000000000.000	10000000000.000	10000000000.000	10000000000.000	10000000000.000	10000000000.000	10000000000.000	10000000000.000	10000000000.000	10000000000.000	10000000000.000	10000000000.000	10000000000.000	10000000000.000	10000000000.000	10000000000.000	10000000000.000	10000000000.000	10000000000.000	10000000000.000	10000000000.000	10000000000.000	10000000000.000	10000000000.000	10000000000.000	10000000000.000	10000000000.000	10000000000.000	10000000000.000	10000000000.000	10000000000.000	10000000000.000	10000000000.000	10000000000.000	10000000000.000	10000000000.000	10000000000.000	10000000000.000	10000000000.000	10000000000.000	10000000000.000	10000000000.000	10000000000.000	10000000000.000	10000000000.000	10000000000.000	10000000000.000	10000000000.000	10000000000.000	10000000000.000	10000000000.000	10000000000.000	10000000000.000	10000000000.000	-7.937	-7.985	-8.005	-7.859	-7.482	-6.897	-6.087	-5.305	-4.761	-4.324	-4.024	-3.837	-3.698	-3.481	-3.321	-3.188	-3.136	-3.089	-3.441	-3.441	-3.441	-3.441	-1.385	-1.385	-1.385	0.114	0.114	0.114	0.114	0.213	0.412	0.412	0.412	0.432	0.432	0.781	0.781	1.461	4.230	3.480	2.160	1.609	1.669	1.759	1.759	2.178	2.178	2.177	2.177	2.216	2.216	2.216	2.216	2.216	2.065	2.065	2.245	2.245	2.245	1.623	1.623	1.623	1.623	1.623	2.132	2.132	2.132	2.132	2.132	2.132	1.920	1.920	1.920	1.920	1.988	1.988	1.988	1.988	1.988	1.988	1.988	1.988	2.025	2.025	2.025	2.025	2.025	2.025	2.025	2.025	2.323	2.323	2.323	2.323	2.323	2.323	2.323	2.323	2.651	2.651	2.651	2.651	2.651	2.651	2.651	2.651	2.651	2.651	3.028	3.028	3.028	2.846	2.846	2.846	2.846	2.846	2.846	2.846	2.846	2.846	3.164	3.164	3.164	3.164	3.164	3.164	3.164	3.164	3.164	2.531	2.531	2.531	2.531	2.531	2.531	2.531	2.531	2.529	2.529	2.529	2.937	2.937	2.937	2.937	2.937	2.937	2.937	2.937	4.485	4.485	4.485	4.485	4.485	4.485	4.485	4.485	6.332	6.332	6.332	6.332	6.332	6.332	6.332	6.332	6.332	6.332	2.710	2.710	3.519	3.519	3.519	3.519	3.519	3.519	3.519	3.519	2.197	2.197	2.197	2.197	2.197	2.197	2.365	2.365	2.365	2.365	2.365	2.323	2.323	2.323	2.323	2.323	2.323	2.323	2.323	2.323	2.161	2.161	2.161	2.161	2.189	2.189	2.189	2.189	2.189	2.189	2.189	2.189	2.056	2.056	2.056	2.056	2.056	2.056	2.056	2.056	2.314	2.314	2.314	2.314	2.453	2.453	2.453	2.453	2.453	2.453	2.453	2.141	2.141	2.141	2.141	2.141	2.141	1.909	1.909	1.909	1.909	1.909	1.909	1.909	2.137	2.137	2.137	2.137	2.175	2.175	2.175	2.175	2.175	2.175	2.104	2.104	2.104	2.104	2.104	1.982	1.982	1.982	1.982	2.051	2.051	2.051	2.051	2.440	2.440	2.440	2.440	2.149	2.149	2.149	2.108	2.297	2.297	2.297	1.997	1.997	1.997	1.676	1.676	1.765	1.835	1.775	1.934	3.014	2.114	2.093	2.233	2.133	2.373	2.312	2.312	2.232	2.121	2.121	2.421	-0.683	-0.873	-1.554	-2.467	-3.306	-4.067	-4.540	-4.836	-5.209	-5.680	-6.181	-6.904	-7.665	-8.334	-8.801	-8.758
10000000000.000	10000000000.000	10000000000.000	10000000000.000	10000000000.000	10000000000.000	10000000000.000	10000000000.000	10000000000.000	10000000000.000	10000000000.000	10000000000.000	10000000000.000	10000000000.000	10000000000.000	10000000000.000	10000000000.000	10000000000.000	10000000000.000	10000000000.000	10000000000.000	10000000000.000	10000000000.000	10000000000.000	10000000000.000	10000000000.000	10000000000.000	10000000000.000	10000000000.000	10000000000.000	10000000000.000	10000000000.000	10000000000.000	10000000000.000	10000000000.000	10000000000.000	10000000000.000	10000000000.000	10000000000.000	10000000000.000	10000000000.000	10000000000.000	10000000000.000	10000000000.000	10000000000.000	10000000000.000	10000000000.000	10000000000.000	10000000000.000	10000000000.000	10000000000.000	10000000000.000	10000000000.000	10000000000.000	10000000000.000	10000000000.000	10000000000.000	10000000000.000	10000000000.000	-7.819	-7.899	-7.967	-7.944	-7.721	-7.090	-6.464	-5.862	-5.304	-4.808	-4.307	-4.022	-3.827	-3.625	-3.425	-3.245	-3.089	-3.089	-3.441	-3.441	-3.441	-3.441	-1.385	-1.385	-1.385	-1.385	0.114	0.114	0.213	0.213	0.213	0.412	0.412	0.432	0.432	0.781	0.781	1.461	3.010	3.460	2.200	1.799	1.809	1.809	2.178	2.178	2.178	2.177	2.177	2.216	2.216	2.216	2.216	2.216	2.245	2.245	2.245	2.245	2.245	1.623	1.623	1.623	1.623	1.623	1.623	1.623	2.132	2.132	1.920	1.920	1.920	1.920	1.920	1.920	1.988	1.988	1.988	1.988	1.988	1.988	1.988	1.988	2.025	2.025	2.025	2.025	2.025	2.025	2.025	2.025	2.323	2.323	2.323	2.323	2.323	2.323	2.323	2.323	2.651	2.651	2.651	2.651	2.651	2.651	2.651	2.651	2.651	2.998	2.998	2.998	2.998	2.846	2.846	2.846	2.846	2.846	2.846	2.846	2.846	2.846	3.164	3.164	3.164	3.164	3.164	3.164	3.164	3.164	3.164	2.452	2.452	2.531	2.531	2.531	2.531	2.529	2.529	2.529	2.529	2.529	2.529	2.937	2.937	2.937	2.937	2.937	2.937	2.937	4.485	4.485	4.485	4.485	4.485	4.485	4.485	4.485	6.332	6.332	6.332	6.332	6.332	6.332	6.332	6.332	6.332	6.332	2.710	2.710	2.710	2.710	3.519	3.519	3.519	3.519	3.519	2.197	2.197	2.197	2.197	2.197	2.197	2.197	2.197	2.197	2.365	2.365	2.323	2.323	2.323	2.323	2.323	2.323	2.323	2.323	2.323	2.161	2.161	2.161	2.161	2.161	2.189	2.189	2.189	2.189	2.189	2.189	2.189	2.189	2.056	2.056	2.056	2.056	2.056	2.056	2.056	2.314	2.314	2.314	2.314	2.314	2.314	2.453	2.453	2.453	2.453	2.453	2.453	2.141	2.141	2.141	2.141	2.141	2.141	1.909	1.909	1.909	1.909	1.909	1.909	1.909	2.137	2.137	2.137	2.137	2.175	2.175	2.175	2.175	2.175	2.175	2.104	2.104	2.104	2.104	2.104	2.073	2.073	2.282	2.282	2.051	2.051	2.051	2.051	2.440	2.440	2.440	2.440	2.440	2.108	2.108	2.108	2.108	2.297	2.297	1.997	1.997	1.966	1.966	1.676	1.795	1.925	1.855	3.004	2.424	1.974	2.213	2.243	2.243	2.053	2.312	2.232	2.232	2.121	2.121	2.421	-0.751	-1.120	-1.825	-2.806	-3.806	-4.581	-5.079	-5.307	-5.497	-6.021	-6.761	-7.564	-8.356	-8.692	-8.865	-8.602
10000000000.000	10000000000.000	10000000000.000	10000000000.000	10000000000.000	10000000000.000	10000000000.000	10000000000.000	10000000000.000	10000000000.000	10000000000.000	10000000000.000	10000000000.000	10000000000.000	10000000000.000	10000000000.000	10000000000.000	10000000000.000	10000000000.000	10000000000.000	10000000000.000	10000000000.000	10000000000.000	10000000000.000	10000000000.000	10000000000.000	10000000000.000	10000000000.000	10000000000.000	10000000000.000	10000000000.000	10000000000.000	10000000000.000	10000000000.000	10000000000.000	10000000000.000	10000000000.000	10000000000.000	10000000000.000	10000000000.000	10000000000.000	10000000000.000	10000000000.000	10000000000.000	10000000000.000	10000000000.000	10000000000.000	10000000000.000	10000000000.000	10000000000.000	10000000000.000	10000000000.000	10000000000.000	10000000000.000	10000000000.000	10000000000.000	10000000000.000	10000000000.000	10000000000.000	-7.742	-7.860	-7.912	-7.870	-7.635	-7.247	-6.834	-6.436	-5.803	-5.215	-4.792	-4.415	-4.064	-3.758	-3.490	-3.273	-3.120	-3.054	-3.049	-3.441	-3.441	-3.441	-1.385	-1.385	-1.385	-1.385	-1.385	0.213	0.213	0.213	0.213	0.532	0.532	0.432	0.432	0.611	1.271	1.271	2.980	3.510	1.990	1.800	1.809	1.949	1.949	1.949	1.958	2.177	2.177	2.216	2.216	2.216	2.216	2.046	2.245	2.245	2.245	2.245	2.245	1.623	1.623	1.623	1.623	1.623	1.623	1.623	1.623	1.920	1.920	1.920	1.920	1.920	1.920	1.920	1.988	1.988	1.988	1.988	1.988	1.988	1.988	1.988	2.025	2.025	2.025	2.025	2.025	2.025	2.025	2.025	2.025	2.323	2.323	2.323	2.323	2.323	2.323	1.882	1.882	2.651	2.651	2.651	2.651	2.651	2.651	2.651	2.998	2.998	2.998	2.998	2.998	2.846	2.846	2.846	2.846	2.846	2.846	2.846	2.846	2.846	2.846	3.164	3.164	3.164	3.164	3.164	3.164	3.164	2.452	2.452	2.452	2.452	2.452	2.452	2.529	2.529	2.529	2.529	2.529	2.529	2.529	2.529	2.937	2.937	2.937	2.937	2.937	4.485	4.485	4.485	4.485	4.485	4.485	4.485	4.485	4.485	5.613	6.332	6.332	6.332	6.332	6.332	6.332	6.332	6.332	2.710	2.710	2.710	2.710	2.710	2.710	3.519	3.519	3.519	2.197	2.197	2.197	2.197	2.197	2.197	2.197	2.197	2.197	2.197	2.115	2.115	2.323	2.323	2.323	2.323	2.323	2.323	2.323	2.323	2.161	2.161	2.161	2.161	2.161	2.161	2.161	2.189	2.189	2.189	2.189	2.189	2.189	2.189	2.056	2.056	2.056	2.056	2.056	2.056	2.056	2.314	2.314	2.314	2.314	2.314	2.314	2.453	2.453	2.453	2.453	2.453	2.453	2.141	2.141	2.141	2.141	2.141	2.141	2.141	1.909	1.909	1.909	1.909	1.909	1.909	2.137	2.137	2.137	2.137	2.137	2.175	2.175	2.175	2.175	2.175	2.175	2.104	2.073	2.073	2.073	2.073	2.073	2.282	2.282	2.051	2.051	2.051	2.051	2.051	2.440	2.440	2.440	1.829	1.829	2.108	2.108	2.108	2.297	2.297	1.787	1.787	1.966	1.966	1.856	1.815	1.935	3.065	2.944	2.064	2.104	2.073	2.073	2.053	2.053	2.162	2.162	2.111	2.111	2.711	-0.694	-0.743	-1.352	-2.245	-3.325	-4.596	-5.319	-5.514	-5.698	-5.961	-6.489	-7.277	-8.117	-8.652	-8.888	-8.821	-8.302
10000000000.000	10000000000.000	10000000000.000	10000000000.000	10000000000.000	10000000000.000	10000000000.000	10000000000.000	10000000000.000	10000000000.000	10000000000.000	10000000000.000	10000000000.000	10000000000.000	10000000000.000	10000000000.000	10000000000.000	10000000000.000	10000000000.000	10000000000.000	10000000000.000	10000000000.000	10000000000.000	10000000000.000	10000000000.000	10000000000.000	10000000000.000	10000000000.000	10000000000.000	10000000000.000	10000000000.000	10000000000.000	10000000000.000	10000000000.000	10000000000.000	10000000000.000	10000000000.000	10000000000.000	10000000000.000	10000000000.000	10000000000.000	10000000000.000	10000000000.000	10000000000.000	10000000000.000	10000000000.000	10000000000.000	10000000000.000	10000000000.000	10000000000.000	10000000000.000	10000000000.000	10000000000.000	10000000000.000	10000000000.000	10000000000.000	10000000000.000	10000000000.000	10000000000.000	-7.822	-7.921	-7.886	-7.746	-7.550	-7.384	-7.151	-6.859	-6.468	-6.015	-5.540	-4.827	-4.324	-3.916	-3.574	-3.379	-3.223	-3.045	-3.015	-3.005	-3.441	-3.441	-1.385	-1.385	-1.385	-1.385	-0.456	-0.456	0.213	0.213	0.213	0.532	0.532	0.632	0.632	0.611	1.051	1.051	2.900	3.450	2.090	2.049	1.859	1.949	1.949	1.958	1.958	1.958	2.297	2.297	2.297	2.046	2.046	2.046	2.245	2.245	2.245	2.245	2.245	1.623	1.623	1.623	1.623	1.623	1.623	1.623	1.920	1.920	1.920	1.920	1.920	1.920	1.920	1.920	1.920	1.988	1.988	1.988	1.988	1.988	1.988	1.988	1.988	2.025	2.025	2.025	2.025	2.025	2.025	2.025	2.025	2.323	2.323	2.323	2.323	1.882	1.882	1.882	1.882	1.882	1.882	2.651	2.651	2.651	2.651	2.998	2.998	2.998	2.998	2.998	2.998	2.998	2.846	2.846	2.846	2.846	2.846	2.846	2.846	2.846	2.846	3.164	3.164	3.164	3.164	3.164	3.164	2.452	2.452	2.452	2.452	2.452	2.452	2.452	2.529	2.529	2.529	2.529	2.529	2.529	2.529	2.529	2.529	2.937	2.937	2.937	4.485	4.485	4.485	4.485	4.485	4.485	4.485	4.485	4.485	5.613	5.613	5.613	5.613	6.332	6.332	6.332	6.332	6.332	2.710	2.710	2.710	2.710	2.710	2.710	2.710	2.710	2.710	2.197	2.197	2.197	2.197	2.197	2.197	2.197	2.197	2.197	2.197	2.115	2.115	2.115	2.115	2.323	2.323	2.323	2.323	2.323	2.323	2.323	2.161	2.161	2.161	2.161	2.161	2.161	2.161	2.379	2.379	2.379	2.379	2.189	2.248	2.248	2.248	2.056	2.056	2.056	2.056	2.056	2.314	2.314	2.314	2.314	2.314	2.314	2.314	2.453	2.453	2.453	2.453	2.453	2.453	2.141	2.141	2.141	2.141	2.141	2.141	2.141	1.909	1.909	1.909	1.909	1.909	1.909	2.137	2.137	2.137	2.137	2.137	2.137	2.175	2.175	2.175	2.434	2.434	2.434	2.073	2.073	2.073	2.073	2.073	2.282	2.282	2.282	2.051	2.051	2.051	2.051	1.950	1.950	1.829	1.829	1.829	1.829	2.108	1.888	1.888	1.827	1.827	1.787	1.776	1.866	1.855	2.025	3.055	3.025	2.184	2.134	2.054	2.054	1.783	1.783	1.812	2.162	2.162	2.111	2.111	2.711	-0.619	-0.896	-1.665	-2.683	-3.982	-5.080	-5.797	-6.105	-6.229	-6.438	-6.954	-7.747	-8.459	-8.838	-8.870	-8.660	-7.762
10000000000.000	10000000000.000	10000000000.000	10000000000.000	10000000000.000	10000000000.000	10000000000.000	10000000000.000	10000000000.000	10000000000.000	10000000000.000	10000000000.000	10000000000.000	10000000000.000	10000000000.000	10000000000.000	10000000000.000	10000000000.000	10000000000.000	10000000000.000	10000000000.000	10000000000.000	10000000000.000	10000000000.000	10000000000.000	10000000000.000	10000000000.000	10000000000.000	10000000000.000	10000000000.000	10000000000.000	10000000000.000	10000000000.000	10000000000.000	10000000000.000	10000000000.000	10000000000.000	10000000000.000	10000000000.000	10000000000.000	10000000000.000	10000000000.000	10000000000.000	10000000000.000	10000000000.000	10000000000.000	10000000000.000	10000000000.000	10000000000.000	10000000000.000	10000000000.000	10000000000.000	10000000000.000	10000000000.000	10000000000.000	10000000000.000	10000000000.000	10000000000.000	10000000000.000	-7.894	-7.961	-7.872	-7.697	-7.558	-7.553	-7.593	-7.466	-7.182	-6.649	-6.212	-5.614	-4.802	-4.241	-3.836	-3.505	-3.323	-3.159	-2.999	-2.989	-2.947	-2.947	-1.385	-1.385	-1.385	-0.456	-0.456	-0.456	-0.456	0.213	0.532	0.532	0.532	0.632	0.632	0.761	0.761	1.051	2.460	3.490	2.270	1.869	1.859	1.829	1.829	1.958	1.958	2.297	2.297	2.297	2.297	2.046	2.046	2.046	2.046	2.245	2.245	2.245	2.245	1.623	1.623	1.623	1.623	1.623	1.623	1.972	1.972	1.920	1.920	1.920	1.920	1.920	1.920	1.920	1.920	1.988	1.988	1.988	1.988	1.988	1.988	1.988	1.988	2.025	2.025	2.025	2.025	2.025	2.025	2.025	2.025	2.323	2.323	1.882	1.882	1.882	1.882	1.882	1.882	1.882	1.882	1.882	1.882	2.998	2.998	2.998	2.998	2.998	2.998	2.998	2.998	2.998	2.846	2.846	2.846	2.846	2.846	2.846	2.846	2.846	2.194	2.194	2.194	3.164	3.164	3.164	2.452	2.452	2.452	2.452	2.452	2.452	2.452	2.452	2.529	2.529	2.529	2.529	2.529	2.529	2.529	2.529	2.529	2.529	2.937	2.937	4.485	4.485	4.485	4.485	4.485	4.485	4.485	4.485	5.613	5.613	5.613	5.613	5.613	5.613	6.332	6.332	6.332	2.710	2.710	2.710	2.710	2.710	2.710	2.710	2.710	2.710	2.710	2.278	2.197	2.197	2.197	2.197	2.197	2.197	2.197	2.197	2.115	2.115	2.115	2.115	2.115	2.115	2.323	2.323	2.323	2.323	2.323	2.161	2.161	2.161	2.161	2.161	2.161	2.161	2.161	2.379	2.379	2.379	2.379	2.248	2.248	2.248	2.248	2.248	2.056	2.056	2.056	2.056	2.314	2.314	2.314	2.314	2.314	2.314	2.314	2.453	2.453	2.453	2.453	2.453	2.453	2.141	2.141	2.141	2.141	2.141	2.141	2.141	1.909	1.909	1.909	1.909	1.909	2.137	2.137	2.137	2.137	2.137	2.137	2.137	2.225	2.225	2.434	2.434	2.434	2.434	2.434	2.073	2.073	2.073	2.073	2.282	2.282	2.282	2.282	2.051	1.900	1.900	1.950	1.950	1.950	1.829	1.829	1.768	1.768	1.888	1.888	1.827	1.827	1.967	1.776	1.866	2.216	3.095	3.045	2.095	2.144	2.124	2.094	2.053	2.053	1.812	1.812	1.812	1.742	2.111	2.111	-0.512	-0.570	-1.067	-2.102	-3.253	-4.518	-5.607	-6.258	-6.523	-6.591	-6.845	-7.369	-8.072	-8.641	-8.845	-8.709	-8.103	-7.149
10000000000.000	10000000000.000	10000000000.000	10000000000.000	10000000000.000	10000000000.000	10000000000.000	10000000000.000	10000000000.000	10000000000.000	10000000000.000	10000000000.000	10000000000.000	10000000000.000	10000000000.000	10000000000.000	10000000000.000	10000000000.000	10000000000.000	10000000000.000	10000000000.000	10000000000.000	10000000000.000	10000000000.000	10000000000.000	10000000000.000	10000000000.000	10000000000.000	10000000000.000	10000000000.000	10000000000.000	10000000000.000	10000000000.000	10000000000.000	10000000000.000	10000000000.000	10000000000.000	10000000000.000	10000000000.000	10000000000.000	10000000000.000	10000000000.000	10000000000.000	10000000000.000	10000000000.000	10000000000.000	10000000000.000	10000000000.000	10000000000.000	10000000000.000	10000000000.000	10000000000.000	10000000000.000	10000000000.000	10000000000.000	10000000000.000	10000000000.000	10000000000.000	10000000000.000	-7.694	-7.846	-7.860	-7.740	-7.688	-7.785	-7.872	-7.759	-7.573	-7.366	-6.970	-6.356	-5.579	-4.683	-4.148	-3.781	-3.523	-3.269	-3.050	-2.947	-2.942	-2.933	-2.790	-2.790	-2.790	-0.456	-0.456	-0.456	-0.456	0.173	0.173	0.532	0.452	0.632	0.611	0.761	0.761	1.091	1.510	3.400	1.940	1.829	1.839	1.819	1.829	1.838	2.048	2.048	2.297	2.297	2.297	2.046	2.046	2.046	2.046	2.245	2.245	2.245	2.245	1.623	1.623	1.623	1.623	1.623	1.972	1.972	1.972	1.920	1.920	1.920	1.920	1.920	1.920	1.920	1.920	1.988	1.988	1.988	1.988	1.988	1.988	1.988	1.988	2.025	2.025	2.025	2.025	2.025	2.025	2.025	1.654	1.654	1.882	1.882	1.882	1.882	1.882	1.882	1.882	1.882	1.882	1.882	1.882	2.998	2.998	2.998	2.998	2.998	2.998	2.998	2.998	2.998	2.998	2.846	2.846	2.846	2.846	2.846	2.846	2.194	2.194	2.194	2.194	2.194	2.194	2.452	2.452	2.452	2.452	2.452	2.452	2.452	2.452	2.452	2.452	2.529	2.529	2.529	2.529	2.529	2.529	2.529	2.529	2.529	3.037	3.037	3.037	4.485	4.485	4.485	4.485	4.485	4.485	4.485	5.613	5.613	5.613	5.613	5.613	5.613	5.613	5.613	2.710	2.710	2.710	2.710	2.710	2.710	2.710	2.710	2.710	2.710	2.278	2.278	2.278	2.197	2.197	2.197	2.197	2.197	2.197	2.197	2.115	2.115	2.115	2.115	2.115	2.115	2.115	2.323	2.323	2.323	2.323	2.161	2.161	2.161	2.161	2.161	2.161	2.161	2.379	2.379	2.379	2.379	2.379	2.248	2.248	2.248	2.248	2.248	2.248	2.186	2.186	2.186	2.314	2.314	2.314	2.314	2.314	2.314	2.314	2.314	2.453	2.453	2.453	2.453	2.472	2.141	2.141	2.141	2.141	2.141	2.141	2.141	1.909	1.909	1.909	1.909	1.909	2.137	2.137	2.137	2.137	2.137	2.137	2.225	2.225	2.225	2.225	2.434	2.434	2.434	2.434	2.073	2.073	2.073	2.073	2.282	2.282	2.282	2.071	1.900	1.900	1.900	1.900	1.950	1.950	1.950	1.829	1.768	1.768	1.768	1.888	1.807	1.877	1.967	2.096	1.956	1.885	3.015	2.855	1.775	2.034	2.124	2.124	2.053	2.193	2.193	1.812	1.742	1.742	1.742	2.121	-0.440	-0.625	-1.373	-2.392	-3.594	-4.817	-5.780	-6.355	-6.665	-6.886	-7.243	-7.777	-8.295	-8.729	-8.730	-8.281	-7.502	-6.641
10000000000.000	10000000000.000	10000000000.000	10000000000.000	10000000000.000	10000000000.000	10000000000.000	10000000000.000	10000000000.000	10000000000.000	10000000000.000	10000000000.000	10000000000.000	10000000000.000	10000000000.000	10000000000.000	10000000000.000	10000000000.000	10000000000.000	10000000000.000	10000000000.000	10000000000.000	10000000000.000	10000000000.000	10000000000.000	10000000000.000	10000000000.000	10000000000.000	10000000000.000	10000000000.000	10000000000.000	10000000000.000	10000000000.000	10000000000.000	10000000000.000	10000000000.000	10000000000.000	10000000000.000	10000000000.000	10000000000.000	10000000000.000	10000000000.000	10000000000.000	10000000000.000	10000000000.000	10000000000.000	10000000000.000	10000000000.000	10000000000.000	10000000000.000	10000000000.000	10000000000.000	10000000000.000	10000000000.000	10000000000.000	10000000000.000	10000000000.000	10000000000.000	10000000000.000	-7.348	-7.652	-7.830	-7.840	-7.846	-7.886	-7.954	-7.940	-7.873	-7.770	-7.424	-6.872	-6.108	-5.333	-4.692	-4.143	-3.704	-3.438	-3.207	-3.007	-2.933	-2.906	-2.790	-2.790	-2.790	-0.456	-0.456	-0.456	0.173	0.173	0.173	0.452	0.452	0.611	0.611	0.611	0.701	1.141	1.410	3.620	3.480	1.799	1.729	1.889	1.838	1.838	2.048	2.048	2.297	2.007	2.007	2.046	2.046	2.046	2.046	2.095	2.245	2.134	2.134	2.134	2.134	2.134	1.972	1.972	1.972	1.972	1.972	1.972	1.920	1.920	1.920	1.920	1.920	1.920	1.920	1.920	1.988	1.988	1.988	1.988	1.988	1.988	1.856	1.856	1.856	2.025	2.025	2.025	1.654	1.654	1.654	1.654	1.654	1.882	1.882	1.882	1.882	1.882	1.882	1.882	1.882	1.882	1.882	2.998	2.998	2.998	2.998	2.998	2.998	2.998	2.998	2.998	2.998	2.846	2.846	2.846	2.846	2.846	2.194	2.194	2.194	2.194	2.194	2.194	2.194	2.194	2.452	2.452	2.452	2.452	2.452	2.452	2.452	2.452	2.452	2.529	2.529	2.529	2.529	2.529	2.529	2.529	2.529	3.037	3.037	3.037	3.037	3.037	3.037	4.485	4.485	4.485	4.485	5.613	5.613	5.613	5.613	5.613	5.613	5.613	5.613	5.613	2.710	2.710	2.710	2.710	2.710	2.710	2.710	2.710	2.710	2.710	2.278	2.278	2.278	2.278	2.197	2.197	2.197	2.197	2.197	2.115	2.115	2.115	2.115	2.115	2.115	2.115	2.115	2.143	2.143	2.143	2.143	2.161	2.161	2.161	2.161	2.161	2.161	2.161	2.379	2.379	2.379	2.379	2.379	2.248	2.248	2.248	2.248	2.248	2.248	2.186	2.186	2.186	2.186	2.186	2.314	2.314	2.314	2.314	2.314	2.433	2.433	2.433	2.472	2.472	2.472	2.472	2.472	2.141	2.141	2.141	2.141	2.149	2.149	2.149	2.149	2.198	2.198	2.198	2.198	2.137	2.137	2.137	2.225	2.225	2.225	2.225	2.225	2.434	2.434	2.434	2.434	2.434	2.073	2.073	2.073	1.902	2.282	2.071	2.071	2.071	1.900	1.900	1.900	1.950	1.950	2.009	1.828	1.828	1.768	1.548	1.807	1.807	1.877	1.866	2.096	2.226	3.015	3.045	1.795	1.775	1.864	2.064	2.174	2.174	2.193	2.193	2.433	1.742	1.742	2.121	2.121	-0.401	-0.743	-1.549	-2.569	-3.689	-4.792	-5.744	-6.205	-6.554	-6.962	-7.447	-8.024	-8.624	-8.826	-8.609	-8.017	-7.059	-5.973
10000000000.000	10000000000.000	10000000000.000	10000000000.000	10000000000.000	10000000000.000	10000000000.000	10000000000.000	10000000000.000	10000000000.000	10000000000.000	10000000000.000	10000000000.000	10000000000.000	10000000000.000	10000000000.000	10000000000.000	10000000000.000	10000000000.000	10000000000.000	10000000000.000	10000000000.000	10000000000.000	10000000000.000	10000000000.000	10000000000.000	10000000000.000	10000000000.000	10000000000.000	10000000000.000	10000000000.000	10000000000.000	10000000000.000	10000000000.000	10000000000.000	10000000000.000	10000000000.000	10000000000.000	10000000000.000	10000000000.000	10000000000.000	10000000000.000	10000000000.000	10000000000.000	10000000000.000	10000000000.000	10000000000.000	10000000000.000	10000000000.000	10000000000.000	10000000000.000	10000000000.000	10000000000.000	10000000000.000	10000000000.000	10000000000.000	10000000000.000	10000000000.000	10000000000.000	-6.770	-7.388	-7.729	-7.881	-7.916	-7.957	-7.996	-8.009	-7.980	-7.929	-7.724	-7.266	-6.621	-5.819	-5.066	-4.588	-4.189	-3.827	-3.500	-3.155	-2.906	-2.897	-2.790	-2.790	-2.790	-2.790	-0.456	-0.456	0.173	0.173	0.173	0.452	0.452	0.452	0.611	0.701	0.701	0.780	1.410	2.660	3.570	1.879	1.839	1.889	1.889	1.838	2.048	2.048	2.057	2.007	2.007	2.007	2.046	2.095	2.095	2.095	2.095	2.134	2.134	2.134	2.134	2.134	1.972	1.972	1.972	1.972	1.972	1.972	1.920	1.920	1.920	1.920	1.920	1.920	1.920	1.899	1.899	1.988	1.988	1.988	1.856	1.856	1.856	1.856	1.856	1.856	1.856	1.654	1.654	1.654	1.654	1.654	1.654	1.882	1.882	1.882	1.882	1.882	1.882	1.882	1.882	1.882	2.100	2.100	2.998	2.998	2.998	2.998	2.998	2.998	2.998	2.998	2.998	2.998	2.846	2.846	2.846	2.194	2.194	2.194	2.194	2.194	2.194	2.194	2.194	2.194	2.452	2.452	2.452	2.452	2.452	2.452	2.452	2.452	2.452	2.529	2.529	2.529	2.529	2.529	2.529	2.529	2.529	3.037	3.037	3.037	3.037	3.037	3.037	3.037	3.037	4.485	5.613	5.613	5.613	5.613	5.613	5.613	5.613	5.613	5.613	5.613	3.681	2.710	2.710	2.710	2.710	2.710	2.710	2.710	2.710	2.278	2.278	2.278	2.278	2.278	2.278	2.278	2.197	2.197	2.115	2.115	2.115	2.115	2.115	2.115	2.115	2.115	2.115	2.143	2.143	2.143	2.143	2.143	2.161	2.161	2.161	2.161	2.161	2.379	2.379	2.379	2.379	2.379	2.379	2.248	2.248	2.248	2.248	2.248	2.248	2.186	2.186	2.186	2.186	2.186	2.094	2.094	2.094	2.094	2.433	2.433	2.433	2.433	2.472	2.472	2.472	2.472	2.472	2.210	2.210	2.210	2.149	2.149	2.149	2.149	2.149	2.198	2.198	2.198	2.198	2.198	2.196	2.196	2.225	2.225	2.225	2.225	2.225	2.434	2.434	2.434	2.434	1.893	1.893	1.893	1.902	1.902	1.902	2.071	2.071	2.071	1.900	1.900	1.930	1.930	2.009	2.009	1.828	1.828	1.738	1.548	1.548	1.727	1.727	1.906	2.206	3.056	3.096	1.785	1.805	1.805	1.924	2.064	2.174	2.174	2.193	2.433	2.433	2.433	2.592	2.121	-0.285	-0.333	-0.891	-1.672	-2.640	-3.828	-4.678	-5.319	-5.918	-6.385	-6.947	-7.605	-8.350	-8.752	-8.830	-8.487	-7.657	-6.531	-5.215
10000000000.000	10000000000.000	10000000000.000	10000000000.000	10000000000.000	10000000000.000	10000000000.000	10000000000.000	10000000000.000	10000000000.000	10000000000.000	10000000000.000	10000000000.000	10000000000.000	10000000000.000	10000000000.000	10000000000.000	10000000000.000	10000000000.000	10000000000.000	10000000000.000	10000000000.000	10000000000.000	10000000000.000	10000000000.000	10000000000.000	10000000000.000	10000000000.000	10000000000.000	10000000000.000	10000000000.000	10000000000.000	10000000000.000	10000000000.000	10000000000.000	10000000000.000	10000000000.000	10000000000.000	10000000000.000	10000000000.000	10000000000.000	10000000000.000	10000000000.000	10000000000.000	10000000000.000	10000000000.000	10000000000.000	10000000000.000	10000000000.000	10000000000.000	10000000000.000	10000000000.000	10000000000.000	10000000000.000	10000000000.000	10000000000.000	10000000000.000	10000000000.000	10000000000.000	-6.336	-7.075	-7.531	-7.776	-7.891	-7.963	-8.002	-8.019	-8.024	-7.986	-7.822	-7.432	-6.814	-6.288	-5.787	-5.296	-4.808	-4.211	-3.728	-3.384	-3.090	-2.889	-2.833	-2.790	-2.790	-2.790	-2.251	-2.251	0.173	0.173	0.173	0.452	0.452	0.452	0.461	0.461	0.621	0.780	1.460	2.150	3.400	1.899	1.849	1.839	1.808	1.818	1.818	2.057	2.057	2.007	2.007	2.007	2.007	2.095	2.095	2.095	2.095	2.134	2.134	2.134	2.134	2.134	1.972	1.972	1.972	1.972	1.972	1.972	1.972	1.920	1.920	1.920	1.920	1.920	1.899	1.899	1.899	1.899	1.899	1.856	1.856	1.856	1.856	1.856	1.856	1.856	1.856	1.654	1.654	1.654	1.654	1.654	1.654	1.654	1.882	1.882	1.882	1.882	1.882	1.882	1.882	1.882	2.100	2.100	2.100	2.998	2.998	2.998	2.998	2.998	2.998	2.998	2.998	2.266	2.266	2.266	2.266	2.194	2.194	2.194	2.194	2.194	2.194	2.194	2.194	2.194	2.452	2.452	2.452	2.452	2.452	2.452	2.452	2.452	2.452	2.529	2.529	2.529	2.529	2.529	2.529	2.529	3.037	3.037	3.037	3.037	3.037	3.037	3.037	3.037	3.037	3.037	5.613	5.613	5.613	5.613	5.613	5.613	5.613	5.613	5.613	3.681	3.681	3.681	3.681	2.710	2.710	2.710	2.710	2.710	2.278	2.278	2.278	2.278	2.278	2.278	2.278	2.278	2.278	2.266	2.115	2.115	2.115	2.115	2.115	2.115	2.115	2.115	2.143	2.143	2.143	2.143	2.143	2.143	2.211	2.211	2.161	2.161	2.161	2.379	2.379	2.379	2.379	2.379	2.379	2.248	2.248	2.248	2.248	2.248	2.186	2.186	2.186	2.186	2.186	2.186	2.094	2.094	2.094	2.094	2.433	2.433	2.433	2.433	2.472	2.472	2.472	2.472	2.472	2.210	2.210	2.210	2.149	2.149	2.149	2.149	2.149	2.198	2.198	2.198	2.198	2.196	2.196	2.196	2.196	2.225	2.225	2.225	2.225	2.434	2.434	2.434	1.893	1.893	1.893	1.893	1.902	1.902	1.902	2.071	2.071	2.071	1.930	1.930	1.930	1.930	2.009	2.009	1.919	1.968	1.738	1.958	2.227	1.847	2.017	1.867	2.836	3.016	2.496	1.895	1.805	1.924	1.924	2.244	2.244	2.283	2.283	2.433	2.433	2.592	2.592	2.592	-0.257	-0.410	-1.026	-1.834	-2.874	-3.679	-4.430	-5.025	-5.598	-6.254	-7.181	-7.942	-8.481	-8.810	-8.759	-8.214	-6.988	-5.940	-4.897
10000000000.000	10000000000.000	10000000000.000	10000000000.000	10000000000.000	10000000000.000	10000000000.000	10000000000.000	10000000000.000	10000000000.000	10000000000.000	10000000000.000	10000000000.000	10000000000.000	10000000000.000	10000000000.000	10000000000.000	10000000000.000	10000000000.000	10000000000.000	10000000000.000	10000000000.000	10000000000.000	10000000000.000	10000000000.000	10000000000.000	10000000000.000	10000000000.000	10000000000.000	10000000000.000	10000000000.000	10000000000.000	10000000000.000	10000000000.000	10000000000.000	10000000000.000	10000000000.000	10000000000.000	10000000000.000	10000000000.000	10000000000.000	10000000000.000	10000000000.000	10000000000.000	10000000000.000	10000000000.000	10000000000.000	10000000000.000	10000000000.000	10000000000.000	10000000000.000	10000000000.000	10000000000.000	10000000000.000	10000000000.000	10000000000.000	10000000000.000	10000000000.000	10000000000.000	-5.957	-6.580	-7.137	-7.527	-7.826	-7.915	-7.950	-7.965	-7.965	-7.956	-7.806	-7.556	-7.237	-6.896	-6.479	-5.794	-5.106	-4.582	-4.123	-3.706	-3.264	-2.963	-2.814	-2.808	-2.800	-2.251	-2.251	-2.251	-2.251	-0.107	-0.107	-0.107	0.372	0.372	0.461	0.461	0.621	1.040	1.040	1.980	3.330	3.369	1.929	1.779	1.808	1.818	1.818	2.057	2.057	2.007	2.007	1.886	1.886	2.095	2.095	2.095	2.095	2.134	2.134	2.134	2.134	2.134	1.972	1.972	1.972	1.972	1.972	1.972	1.972	1.972	1.920	1.920	1.899	1.899	1.899	1.899	1.899	1.899	1.899	1.856	1.856	1.856	1.856	1.856	1.856	1.856	1.856	1.654	1.654	1.654	1.654	1.654	1.654	1.654	1.654	1.882	1.882	1.882	1.882	1.882	1.882	2.100	2.100	2.100	2.100	2.100	2.998	2.998	2.998	2.998	2.998	2.998	2.266	2.266	2.266	2.266	2.266	2.194	2.194	2.194	2.194	2.194	2.194	2.194	2.194	2.194	2.194	2.452	2.452	2.452	2.452	2.452	2.452	2.452	2.420	2.420	2.420	2.529	2.529	2.529	2.529	3.037	3.037	3.037	3.037	3.037	3.037	3.037	3.037	3.037	3.037	3.037	5.613	5.613	5.613	5.613	5.613	5.613	5.613	5.613	5.613	3.681	3.681	3.681	3.681	3.681	2.710	2.710	2.710	2.278	2.278	2.278	2.278	2.278	2.278	2.278	2.278	2.278	2.266	2.266	2.266	2.266	2.115	2.115	2.115	2.115	2.115	2.143	2.143	2.143	2.143	2.143	2.143	2.143	2.211	2.211	2.211	2.211	2.140	2.140	2.379	2.379	2.379	2.379	2.379	2.248	2.248	2.248	2.248	2.248	2.186	2.186	2.186	2.186	2.186	2.094	2.094	2.094	2.094	2.094	2.433	2.433	2.433	2.433	2.472	2.472	2.472	2.472	2.472	2.210	2.210	2.210	2.210	2.149	2.149	2.149	2.149	2.198	2.198	2.198	2.198	2.196	2.196	2.196	2.196	2.225	2.225	2.225	2.455	2.455	2.455	2.224	1.893	1.893	1.893	1.893	1.902	1.902	1.902	1.902	2.071	1.930	1.930	1.930	1.930	1.930	1.729	1.919	1.919	1.968	1.848	1.958	2.227	1.857	1.937	2.877	2.886	2.106	2.266	2.115	2.155	2.715	2.124	2.244	2.244	2.283	2.283	2.453	2.453	2.592	2.592	-0.274	-0.274	-0.592	-1.393	-2.166	-2.903	-3.598	-4.195	-4.767	-5.590	-6.472	-7.358	-8.149	-8.675	-8.857	-8.587	-7.721	-6.592	-5.468	-4.500
10000000000.000	10000000000.000	10000000000.000	10000000000.000	10000000000.000	10000000000.000	10000000000.000	10000000000.000	10000000000.000	10000000000.000	10000000000.000	10000000000.000	10000000000.000	10000000000.000	10000000000.000	10000000000.000	10000000000.000	10000000000.000	10000000000.000	10000000000.000	10000000000.000	10000000000.000	10000000000.000	10000000000.000	10000000000.000	10000000000.000	10000000000.000	10000000000.000	10000000000.000	10000000000.000	10000000000.000	10000000000.000	10000000000.000	10000000000.000	10000000000.000	10000000000.000	10000000000.000	10000000000.000	10000000000.000	10000000000.000	10000000000.000	10000000000.000	10000000000.000	10000000000.000	10000000000.000	10000000000.000	10000000000.000	10000000000.000	10000000000.000	10000000000.000	10000000000.000	10000000000.000	10000000000.000	10000000000.000	10000000000.000	10000000000.000	10000000000.000	10000000000.000	10000000000.000	-5.552	-6.128	-6.942	-7.386	-7.653	-7.780	-7.828	-7.876	-7.862	-7.849	-7.825	-7.742	-7.515	-7.266	-6.858	-6.112	-5.472	-4.954	-4.407	-3.959	-3.527	-3.101	-2.843	-2.797	-2.755	-2.251	-2.251	-2.251	-2.251	-0.107	-0.107	-0.107	0.372	0.372	0.461	0.461	0.561	1.040	1.570	1.570	2.610	3.519	2.149	1.779	1.918	1.918	2.037	2.037	2.127	2.127	1.886	1.886	1.886	2.095	2.095	2.095	2.095	2.134	2.134	2.134	2.134	2.134	1.972	1.972	1.972	1.972	1.972	1.972	1.791	1.791	1.791	1.791	1.899	1.899	1.899	1.899	1.899	1.899	1.899	1.856	1.856	1.856	1.856	1.856	1.856	1.856	1.856	1.654	1.654	1.654	1.654	1.654	1.654	1.654	1.654	1.882	1.882	1.882	1.882	1.882	2.100	2.100	2.100	2.100	2.100	2.100	2.100	2.998	2.998	2.998	2.998	2.266	2.266	2.266	2.266	2.266	2.266	2.266	2.194	2.194	2.194	2.194	2.194	2.194	2.194	2.194	2.194	2.272	2.452	2.452	2.452	2.452	2.452	2.420	2.420	2.420	2.420	2.420	2.420	2.529	2.529	3.037	3.037	3.037	3.037	3.037	3.037	3.037	3.037	3.037	3.037	4.055	4.055	4.055	5.613	5.613	5.613	5.613	5.613	5.613	3.681	3.681	3.681	3.681	3.681	3.681	3.681	3.681	2.710	2.278	2.278	2.278	2.278	2.278	2.278	2.278	2.278	2.278	2.266	2.266	2.266	2.266	2.266	2.115	2.115	2.115	2.115	2.143	2.143	2.143	2.143	2.143	2.143	2.143	2.211	2.211	2.211	2.211	2.140	2.140	2.140	2.140	2.379	2.379	2.379	2.248	2.248	2.248	2.248	2.248	2.186	2.186	2.186	2.186	2.186	2.094	2.094	2.094	2.094	2.094	2.433	2.433	2.433	2.433	2.472	2.472	2.472	2.472	2.472	2.210	2.210	2.210	2.210	2.149	2.149	2.149	2.149	2.198	2.198	2.198	2.198	2.196	2.196	2.196	2.196	2.196	2.095	2.455	2.455	2.455	2.455	2.224	2.224	1.893	1.893	1.893	1.902	1.902	1.821	1.821	2.001	2.001	1.930	1.930	1.950	1.809	1.729	1.729	1.848	1.988	1.848	1.908	1.887	2.877	2.957	2.916	2.496	2.126	2.065	2.205	2.295	2.124	2.124	2.154	2.154	2.283	2.283	2.453	2.453	2.592	2.592	-0.228	-0.358	-0.928	-1.569	-2.297	-2.976	-3.565	-4.088	-4.789	-5.550	-6.533	-7.567	-8.375	-8.805	-8.782	-8.206	-7.162	-5.974	-4.927	-4.165
10000000000.000	10000000000.000	10000000000.000	10000000000.000	10000000000.000	10000000000.000	10000000000.000	10000000000.000	10000000000.000	10000000000.000	10000000000.000	10000000000.000	10000000000.000	10000000000.000	10000000000.000	10000000000.000	10000000000.000	10000000000.000	10000000000.000	10000000000.000	10000000000.000	10000000000.000	10000000000.000	10000000000.000	10000000000.000	10000000000.000	10000000000.000	10000000000.000	10000000000.000	10000000000.000	10000000000.000	10000000000.000	10000000000.000	10000000000.000	10000000000.000	10000000000.000	10000000000.000	10000000000.000	10000000000.000	10000000000.000	10000000000.000	10000000000.000	10000000000.000	10000000000.000	10000000000.000	10000000000.000	10000000000.000	10000000000.000	10000000000.000	10000000000.000	10000000000.000	10000000000.000	10000000000.000	10000000000.000	10000000000.000	10000000000.000	10000000000.000	10000000000.000	10000000000.000	-5.429	-5.976	-6.578	-7.066	-7.369	-7.608	-7.672	-7.677	-7.674	-7.718	-7.809	-7.818	-7.716	-7.410	-6.936	-6.329	-5.702	-5.252	-4.822	-4.250	-3.789	-3.304	-2.991	-2.751	-2.736	-2.251	-2.251	-2.251	-2.251	-0.107	-0.107	-0.107	0.372	0.372	0.511	0.561	0.561	0.561	0.980	1.260	1.940	3.259	3.539	1.919	1.728	1.918	1.918	2.037	2.127	2.127	1.886	1.886	1.886	1.886	2.095	2.095	2.004	2.004	2.004	2.134	1.903	1.903	1.903	1.972	1.972	1.972	1.972	1.791	1.791	1.791	1.791	1.791	1.899	1.899	1.899	1.899	1.899	1.899	1.899	1.856	1.856	1.856	1.856	1.856	1.856	1.856	1.856	1.654	1.654	1.654	1.654	1.654	1.654	1.654	1.654	1.654	1.882	1.882	1.882	2.100	2.100	2.100	2.100	2.100	2.100	2.100	2.100	2.100	2.100	2.998	2.266	2.266	2.266	2.266	2.266	2.266	2.266	2.266	2.194	2.194	2.194	2.194	2.194	2.194	2.194	2.272	2.272	2.272	2.272	2.272	2.272	2.420	2.420	2.420	2.420	2.420	2.420	2.420	2.420	2.420	2.420	3.037	3.037	3.037	3.037	3.037	3.037	3.037	3.037	3.037	4.055	4.055	4.055	4.055	4.055	5.613	5.613	5.613	5.613	3.681	3.681	3.681	3.681	3.681	3.681	3.681	3.681	3.681	2.639	2.278	2.278	2.278	2.278	2.278	2.278	2.278	2.278	2.266	2.266	2.266	2.266	2.266	2.266	2.144	2.144	2.144	2.144	2.143	2.143	2.143	2.143	2.143	2.143	2.211	2.211	2.211	2.211	2.211	2.140	2.140	2.140	2.140	2.140	2.348	2.348	2.348	2.047	2.047	2.047	2.047	2.047	2.186	2.186	2.186	2.186	2.094	2.094	2.094	2.094	2.094	2.433	2.433	2.433	2.433	2.433	2.472	2.472	2.472	2.210	2.210	2.210	2.210	2.210	2.149	2.149	2.149	2.149	2.198	2.198	2.198	2.198	2.196	2.196	2.196	2.196	2.095	2.095	2.455	2.455	2.455	2.455	2.224	2.224	2.224	1.893	1.912	1.912	1.912	1.821	1.821	2.001	2.001	2.001	1.950	1.950	1.809	1.809	1.739	1.739	1.658	2.008	2.058	2.987	2.957	2.547	2.036	2.096	1.996	2.106	2.205	2.295	2.084	2.084	2.154	2.154	2.243	2.453	2.453	2.453	2.453	0.202	-0.202	-0.465	-1.095	-1.805	-2.495	-3.110	-3.704	-4.201	-4.791	-5.590	-6.609	-7.660	-8.554	-8.818	-8.555	-7.722	-6.492	-5.451	-4.472	-3.513
10000000000.000	10000000000.000	10000000000.000	10000000000.000	10000000000.000	10000000000.000	10000000000.000	10000000000.000	10000000000.000	10000000000.000	10000000000.000	10000000000.000	10000000000.000	10000000000.000	10000000000.000	10000000000.000	10000000000.000	10000000000.000	10000000000.000	10000000000.000	10000000000.000	10000000000.000	10000000000.000	10000000000.000	10000000000.000	10000000000.000	10000000000.000	10000000000.000	10000000000.000	10000000000.000	10000000000.000	10000000000.000	10000000000.000	10000000000.000	10000000000.000	10000000000.000	10000000000.000	10000000000.000	10000000000.000	10000000000.000	10000000000.000	10000000000.000	10000000000.000	10000000000.000	10000000000.000	10000000000.000	10000000000.000	10000000000.000	10000000000.000	10000000000.000	10000000000.000	10000000000.000	10000000000.000	10000000000.000	10000000000.000	10000000000.000	10000000000.000	10000000000.000	10000000000.000	-5.206	-5.645	-6.164	-6.739	-7.054	-7.293	-7.399	-7.455	-7.548	-7.644	-7.769	-7.809	-7.649	-7.363	-6.935	-6.488	-6.116	-5.754	-5.201	-4.585	-4.121	-3.684	-3.271	-2.929	-2.724	-2.679	-2.678	-2.251	-1.737	-0.107	-0.107	0.022	0.022	0.511	0.511	0.511	0.561	0.910	0.910	1.460	2.029	3.099	3.529	1.969	1.828	1.858	2.008	2.077	2.077	2.087	2.087	1.886	1.886	2.335	2.335	2.004	2.004	2.004	2.004	1.903	1.903	1.903	1.903	1.903	1.903	1.972	1.791	1.791	1.791	1.791	1.791	1.791	1.899	1.899	1.899	1.899	1.899	1.899	1.899	1.856	1.856	1.856	1.856	1.856	1.856	1.856	1.856	1.654	1.654	1.654	1.654	1.654	1.654	1.654	1.654	1.654	1.882	1.882	2.100	2.100	2.100	2.100	2.100	2.100	2.100	2.100	2.100	2.100	2.100	2.266	2.266	2.266	2.266	2.266	2.266	2.266	2.266	2.266	2.266	2.194	2.194	2.194	2.194	2.194	2.272	2.272	2.272	2.272	2.272	2.272	2.272	2.420	2.420	2.420	2.420	2.420	2.420	2.420	2.420	2.420	2.278	2.278	3.037	3.037	3.037	3.037	3.037	3.037	3.037	3.037	4.055	4.055	4.055	4.055	4.055	4.055	4.055	5.613	3.681	3.681	3.681	3.681	3.681	3.681	3.681	3.681	3.681	3.681	2.639	2.639	2.639	2.278	2.278	2.278	2.278	2.278	2.266	2.266	2.266	2.266	2.266	2.266	2.266	2.144	2.144	2.144	2.144	2.144	2.143	2.143	2.143	2.143	2.143	2.211	2.211	2.211	2.211	2.211	2.140	2.140	2.140	2.140	2.348	2.348	2.348	2.348	2.047	2.047	2.047	2.047	2.047	2.176	2.176	2.176	2.195	2.094	2.094	2.094	2.094	2.394	2.433	2.433	2.433	2.433	2.272	2.272	2.472	2.472	2.210	2.210	2.210	2.210	2.210	2.149	2.149	2.149	2.108	2.108	2.108	2.127	2.127	2.127	2.127	1.946	2.095	2.095	2.095	2.095	2.455	2.455	2.455	2.224	2.224	2.224	1.923	1.912	1.912	1.912	1.821	1.821	1.821	2.001	1.910	1.910	1.950	1.809	1.729	1.619	1.769	1.828	1.848	3.028	2.967	2.347	2.457	2.116	2.096	2.066	2.086	2.155	2.095	2.084	2.084	2.154	2.243	2.243	2.243	2.453	2.453	0.202	0.202	-0.188	-0.647	-1.347	-2.076	-2.811	-3.381	-3.867	-4.368	-5.019	-5.791	-6.807	-7.959	-8.578	-8.709	-8.245	-7.322	-5.988	-4.566	-3.735	-3.030
10000000000.000	10000000000.000	10000000000.000	10000000000.000	10000000000.000	10000000000.000	10000000000.000	10000000000.000	10000000000.000	10000000000.000	10000000000.000	10000000000.000	10000000000.000	10000000000.000	10000000000.000	10000000000.000	10000000000.000	10000000000.000	10000000000.000	10000000000.000	10000000000.000	10000000000.000	10000000000.000	10000000000.000	10000000000.000	10000000000.000	10000000000.000	10000000000.000	10000000000.000	10000000000.000	10000000000.000	10000000000.000	10000000000.000	10000000000.000	10000000000.000	10000000000.000	10000000000.000	10000000000.000	10000000000.000	10000000000.000	10000000000.000	10000000000.000	10000000000.000	10000000000.000	10000000000.000	10000000000.000	10000000000.000	10000000000.000	10000000000.000	10000000000.000	10000000000.000	10000000000.000	10000000000.000	10000000000.000	10000000000.000	10000000000.000	10000000000.000	10000000000.000	10000000000.000	-5.034	-5.413	-5.830	-6.294	-6.626	-6.927	-7.213	-7.382	-7.544	-7.683	-7.798	-7.779	-7.586	-7.293	-7.054	-6.903	-6.664	-6.107	-5.579	-5.055	-4.589	-4.113	-3.437	-3.046	-2.767	-2.680	-2.648	-2.648	-1.737	-1.737	-1.737	0.022	0.022	0.022	0.511	0.511	0.591	0.591	0.910	1.280	2.029	3.089	3.509	3.729	1.778	1.898	2.008	2.077	2.077	2.087	2.087	2.087	2.335	2.335	2.335	2.004	2.004	2.004	2.004	1.903	1.903	1.903	1.903	1.903	1.903	1.802	1.791	1.791	1.791	1.791	1.791	1.791	1.791	1.899	1.899	1.899	1.899	1.899	1.899	1.899	1.856	1.856	1.856	1.856	1.856	1.856	1.856	1.654	1.654	1.654	1.654	1.654	1.654	1.654	1.654	2.112	2.112	2.112	2.112	2.100	2.100	2.100	2.100	2.100	2.100	2.100	2.100	2.100	2.168	2.266	2.266	2.266	2.266	2.266	2.266	2.266	2.266	2.266	2.266	2.266	2.194	2.194	2.194	2.272	2.272	2.272	2.272	2.272	2.272	2.272	2.272	2.420	2.420	2.420	2.420	2.420	2.420	2.420	2.420	2.420	2.278	2.278	2.278	2.278	3.037	3.037	3.037	3.037	3.037	4.055	4.055	4.055	4.055	4.055	4.055	4.055	4.055	4.055	3.681	3.681	3.681	3.681	3.681	3.681	3.681	3.681	3.681	2.639	2.639	2.639	2.639	2.639	2.278	2.278	2.278	2.278	2.266	2.266	2.266	2.266	2.266	2.266	2.266	2.144	2.144	2.144	2.144	2.144	2.313	2.143	2.143	2.143	2.211	2.211	2.211	2.211	2.211	2.211	2.140	2.140	2.140	2.140	2.348	2.348	2.348	2.348	2.348	2.047	2.047	2.047	2.047	2.176	2.176	2.176	2.195	2.195	2.195	2.394	2.394	2.394	2.394	2.143	2.143	2.272	2.272	2.272	2.272	2.461	2.461	2.461	2.210	2.120	2.120	2.409	2.409	2.409	2.108	2.108	2.108	2.127	2.127	2.127	1.946	1.946	1.946	2.095	2.095	2.095	2.455	2.455	2.054	2.224	2.224	1.923	1.923	1.923	1.912	1.912	1.832	1.821	1.821	1.821	1.910	1.910	1.900	1.830	1.729	1.809	1.809	2.988	3.048	2.738	1.957	2.377	2.297	2.206	1.976	2.086	2.086	2.095	2.095	2.084	2.394	2.394	2.243	2.243	2.243	2.283	2.283	0.202	-0.069	-0.252	-0.912	-1.583	-2.471	-3.140	-3.699	-4.180	-4.608	-5.320	-6.489	-7.504	-8.283	-8.695	-8.644	-8.014	-6.526	-5.130	-4.039	-3.385	-2.719
10000000000.000	10000000000.000	10000000000.000	10000000000.000	10000000000.000	10000000000.000	10000000000.000	10000000000.000	10000000000.000	10000000000.000	10000000000.000	10000000000.000	10000000000.000	10000000000.000	10000000000.000	10000000000.000	10000000000.000	10000000000.000	10000000000.000	10000000000.000	10000000000.000	10000000000.000	10000000000.000	10000000000.000	10000000000.000	10000000000.000	10000000000.000	10000000000.000	10000000000.000	10000000000.000	10000000000.000	10000000000.000	10000000000.000	10000000000.000	10000000000.000	10000000000.000	10000000000.000	10000000000.000	10000000000.000	10000000000.000	10000000000.000	10000000000.000	10000000000.000	10000000000.000	10000000000.000	10000000000.000	10000000000.000	10000000000.000	10000000000.000	10000000000.000	10000000000.000	10000000000.000	10000000000.000	10000000000.000	10000000000.000	10000000000.000	10000000000.000	10000000000.000	10000000000.000	-4.936	-5.175	-5.540	-5.889	-6.357	-6.775	-7.164	-7.488	-7.760	-7.822	-7.855	-7.786	-7.606	-7.446	-7.447	-7.335	-7.163	-6.722	-6.125	-5.548	-4.823	-4.312	-3.795	-3.351	-3.009	-2.686	-2.643	-2.636	-1.737	-1.737	-1.737	0.022	0.022	0.022	0.441	0.591	0.591	0.591	0.890	1.280	2.299	3.099	3.139	3.569	2.018	1.878	1.968	2.127	2.037	2.087	1.896	1.896	2.335	2.335	2.335	2.004	2.004	2.004	2.004	1.903	1.903	1.903	1.903	1.903	1.802	1.802	1.791	1.791	1.791	1.791	1.791	1.791	1.791	1.899	1.899	1.899	1.899	1.899	1.899	1.899	1.856	1.856	1.856	1.856	1.856	1.856	1.825	1.825	1.654	1.654	1.654	1.654	1.654	1.654	2.112	2.112	2.112	2.112	2.112	2.112	2.100	2.100	2.100	2.100	2.100	2.100	2.100	2.168	2.168	2.168	2.266	2.266	2.266	2.266	2.266	2.266	2.266	2.266	2.266	2.266	2.185	2.194	2.272	2.272	2.272	2.272	2.272	2.272	2.272	2.272	2.272	2.420	2.420	2.420	2.420	2.420	2.420	2.420	2.420	2.278	2.278	2.278	2.278	2.278	2.278	3.037	3.037	3.037	4.055	4.055	4.055	4.055	4.055	4.055	4.055	4.055	4.055	2.683	2.683	2.683	3.681	3.681	3.681	3.681	3.681	3.681	2.639	2.639	2.639	2.639	2.639	2.639	2.639	2.418	2.418	2.418	2.266	2.266	2.266	2.266	2.266	2.266	2.266	2.144	2.144	2.144	2.144	2.144	2.313	2.313	2.313	2.313	2.112	2.211	2.211	2.211	2.211	2.211	2.140	2.140	2.140	2.140	2.348	2.348	2.348	2.348	2.348	2.047	2.047	2.047	2.176	2.176	2.176	2.176	2.195	2.195	2.195	2.394	2.394	2.394	2.394	2.143	2.143	2.272	2.272	2.272	2.272	2.461	2.461	2.461	2.461	2.120	2.120	2.120	2.409	2.409	2.108	2.108	2.108	2.108	2.127	2.127	1.946	1.946	1.946	2.095	2.095	2.095	2.165	2.165	2.054	2.054	2.033	2.033	1.923	1.923	1.872	1.832	1.832	1.911	1.821	1.821	1.840	1.860	1.900	1.959	2.049	1.859	2.849	3.018	2.738	1.918	1.957	1.957	2.507	2.136	2.126	2.126	2.165	2.165	2.335	2.335	2.394	2.394	2.394	2.243	2.283	2.283	2.283	-0.030	-0.030	-0.421	-1.320	-2.106	-2.845	-3.512	-3.985	-4.492	-5.192	-6.001	-7.007	-7.871	-8.547	-8.802	-8.557	-7.448	-6.028	-4.768	-3.755	-3.056	-2.395
10000000000.000	10000000000.000	10000000000.000	10000000000.000	10000000000.000	10000000000.000	10000000000.000	10000000000.000	10000000000.000	10000000000.000	10000000000.000	10000000000.000	10000000000.000	10000000000.000	10000000000.000	10000000000.000	10000000000.000	10000000000.000	10000000000.000	10000000000.000	10000000000.000	10000000000.000	10000000000.000	10000000000.000	10000000000.000	10000000000.000	10000000000.000	10000000000.000	10000000000.000	10000000000.000	10000000000.000	10000000000.000	10000000000.000	10000000000.000	10000000000.000	10000000000.000	10000000000.000	10000000000.000	10000000000.000	10000000000.000	10000000000.000	10000000000.000	10000000000.000	10000000000.000	10000000000.000	10000000000.000	10000000000.000	10000000000.000	10000000000.000	10000000000.000	10000000000.000	10000000000.000	10000000000.000	10000000000.000	10000000000.000	10000000000.000	10000000000.000	10000000000.000	10000000000.000	-4.883	-5.090	-5.380	-5.730	-6.208	-6.770	-7.370	-7.684	-7.883	-7.954	-7.938	-7.856	-7.687	-7.663	-7.758	-7.819	-7.681	-7.296	-6.587	-5.873	-5.297	-4.725	-4.186	-3.623	-3.234	-2.842	-2.628	-2.611	-1.737	-1.737	-1.737	0.022	0.022	0.441	0.441	0.441	0.591	0.890	0.890	0.890	1.900	3.099	3.119	3.239	3.808	2.208	1.958	1.987	2.037	2.017	1.896	1.896	1.896	2.335	2.155	2.155	2.004	2.004	2.004	1.903	1.903	1.903	1.903	1.802	1.802	1.802	1.802	1.791	1.791	1.791	1.791	1.791	1.791	1.899	1.899	1.899	1.899	1.899	1.617	1.617	1.617	1.617	1.856	1.856	1.825	1.825	1.825	1.825	1.825	1.825	1.654	1.654	1.654	2.112	2.112	2.112	2.112	2.112	2.112	2.112	2.112	2.100	2.100	2.100	2.100	2.100	2.168	2.168	2.168	2.168	2.168	2.266	2.266	2.266	2.266	2.266	2.266	2.266	2.266	2.185	2.185	2.185	2.272	2.272	2.272	2.272	2.272	2.272	2.272	2.272	2.272	2.272	2.420	2.420	2.420	2.420	2.420	2.420	2.420	2.278	2.278	2.278	2.278	2.278	2.278	2.278	2.278	4.055	4.055	4.055	4.055	4.055	4.055	4.055	4.055	4.055	2.683	2.683	2.683	2.683	2.683	3.681	3.681	3.681	3.681	2.639	2.639	2.639	2.639	2.639	2.639	2.639	2.639	2.418	2.418	2.418	2.418	2.266	2.266	2.266	2.266	2.266	2.144	2.144	2.144	2.144	2.144	2.313	2.313	2.313	2.313	2.112	2.112	2.112	2.112	2.211	2.101	2.101	2.101	2.140	2.140	2.160	2.348	2.348	2.348	2.348	2.348	2.047	2.047	2.047	2.176	2.176	2.176	2.176	2.195	2.195	2.195	2.394	2.394	2.394	2.143	2.143	2.143	2.272	2.272	2.272	2.272	2.461	2.461	2.461	2.120	2.120	2.120	2.120	2.409	2.409	2.409	2.108	2.108	2.108	2.127	2.127	1.946	1.946	1.946	2.106	2.075	2.165	2.165	2.165	2.054	2.054	2.033	2.033	2.023	1.872	1.872	1.832	1.832	1.911	1.701	1.840	1.840	1.860	2.030	1.889	2.699	2.949	2.899	1.888	1.878	2.038	1.917	1.927	1.877	2.136	2.136	2.136	2.165	2.165	2.335	2.335	2.394	2.394	2.323	2.323	2.283	2.283	2.283	0.097	-0.104	-0.838	-1.668	-2.459	-3.106	-3.762	-4.353	-5.073	-5.775	-6.440	-7.373	-8.222	-8.740	-8.766	-8.191	-7.143	-5.688	-4.392	-3.491	-2.696	-2.057
10000000000.000	10000000000.000	10000000000.000	10000000000.000	10000000000.000	10000000000.000	10000000000.000	10000000000.000	10000000000.000	10000000000.000	10000000000.000	10000000000.000	10000000000.000	10000000000.000	10000000000.000	10000000000.000	10000000000.000	10000000000.000	10000000000.000	10000000000.000	10000000000.000	10000000000.000	10000000000.000	10000000000.000	10000000000.000	10000000000.000	10000000000.000	10000000000.000	10000000000.000	10000000000.000	10000000000.000	10000000000.000	10000000000.000	10000000000.000	10000000000.000	10000000000.000	10000000000.000	10000000000.000	10000000000.000	10000000000.000	10000000000.000	10000000000.000	10000000000.000	10000000000.000	10000000000.000	10000000000.000	10000000000.000	10000000000.000	10000000000.000	10000000000.000	10000000000.000	10000000000.000	10000000000.000	10000000000.000	10000000000.000	10000000000.000	10000000000.000	10000000000.000	10000000000.000	-4.831	-5.031	-5.264	-5.591	-6.190	-6.843	-7.354	-7.683	-7.851	-7.918	-7.947	-7.899	-7.865	-7.885	-7.937	-7.956	-7.869	-7.559	-7.132	-6.565	-5.887	-5.074	-4.488	-3.893	-3.451	-3.061	-2.702	-2.547	-2.538	-1.737	-1.737	-1.308	-1.308	0.441	0.441	0.441	0.491	0.491	0.890	1.900	1.900	3.019	2.889	2.738	3.828	2.118	2.248	1.987	2.017	2.017	1.896	1.896	1.986	2.155	2.155	2.155	2.155	2.004	2.004	2.004	1.903	1.903	1.802	1.802	1.802	1.802	1.802	1.802	1.791	1.791	1.791	1.791	1.739	1.739	1.739	1.899	1.899	1.617	1.617	1.617	1.617	1.617	1.617	1.825	1.825	1.825	1.825	1.825	1.825	1.825	1.825	1.825	2.112	2.112	2.112	2.112	2.112	2.112	2.112	2.112	2.112	2.112	2.100	2.100	2.100	2.168	2.168	2.168	2.168	2.168	2.168	2.168	2.266	2.266	2.266	2.266	2.266	2.266	2.185	2.185	2.185	2.185	2.185	2.272	2.272	2.272	2.272	2.272	2.272	2.272	2.272	2.272	2.420	2.420	2.420	2.420	2.420	2.420	2.278	2.278	2.278	2.278	2.278	2.278	2.278	2.278	2.278	2.876	4.055	4.055	4.055	4.055	4.055	4.055	4.055	4.055	2.683	2.683	2.683	2.683	2.683	2.683	3.681	3.681	3.681	2.639	2.639	2.639	2.639	2.639	2.639	2.639	2.418	2.418	2.418	2.418	2.418	2.418	2.266	2.266	2.266	2.266	2.144	2.144	2.144	2.144	2.144	2.313	2.313	2.313	2.313	2.112	2.112	2.112	2.112	2.101	2.101	2.101	2.101	2.160	2.160	2.160	2.160	2.348	2.348	2.348	1.988	1.988	2.047	1.927	2.176	2.176	2.176	2.176	2.195	2.195	2.195	2.394	2.394	2.394	2.143	2.143	2.143	2.143	2.272	2.272	2.272	2.461	2.461	2.461	2.120	2.120	2.120	2.120	2.409	2.409	2.409	2.108	2.108	2.067	2.067	2.067	2.106	2.106	2.106	2.106	2.075	2.075	2.165	2.165	2.054	2.054	2.033	2.033	2.023	2.023	1.872	1.792	1.702	1.841	1.701	1.701	1.650	1.720	2.000	2.899	2.989	2.679	1.829	1.858	1.848	1.948	1.967	1.967	1.877	1.866	2.136	2.136	2.335	2.335	2.335	2.335	2.394	2.323	2.323	2.323	2.323	2.283	0.436	0.291	-0.246	-1.112	-1.892	-2.658	-3.351	-4.123	-4.785	-5.430	-6.250	-7.114	-7.919	-8.604	-8.798	-8.606	-7.887	-6.663	-5.259	-4.094	-3.193	-2.533	-1.822
10000000000.000	10000000000.000	10000000000.000	10000000000.000	10000000000.000	10000000000.000	10000000000.000	10000000000.000	10000000000.000	10000000000.000	10000000000.000	10000000000.000	10000000000.000	10000000000.000	10000000000.000	10000000000.000	10000000000.000	10000000000.000	10000000000.000	10000000000.000	10000000000.000	10000000000.000	10000000000.000	10000000000.000	10000000000.000	10000000000.000	10000000000.000	10000000000.000	10000000000.000	10000000000.000	10000000000.000	10000000000.000	10000000000.000	10000000000.000	10000000000.000	10000000000.000	10000000000.000	10000000000.000	10000000000.000	10000000000.000	10000000000.000	10000000000.000	10000000000.000	10000000000.000	10000000000.000	10000000000.000	10000000000.000	10000000000.000	10000000000.000	10000000000.000	10000000000.000	10000000000.000	10000000000.000	10000000000.000	10000000000.000	10000000000.000	10000000000.000	10000000000.000	10000000000.000	-4.750	-4.945	-5.134	-5.507	-5.941	-6.471	-6.959	-7.309	-7.636	-7.773	-7.862	-7.924	-7.950	-7.941	-7.918	-7.871	-7.851	-7.805	-7.610	-7.033	-6.303	-5.510	-4.717	-4.192	-3.654	-3.234	-2.885	-2.610	-2.510	-2.470	-1.308	-1.308	-1.308	-1.308	0.441	0.491	0.491	0.491	0.870	0.870	1.249	2.549	3.089	2.688	3.638	3.768	2.398	2.017	1.907	1.986	1.986	1.986	1.986	1.986	2.155	2.155	2.155	2.004	2.004	2.004	2.004	2.473	1.802	1.802	1.802	1.802	1.802	1.802	1.791	1.791	1.791	1.739	1.739	1.739	1.739	1.739	1.617	1.617	1.617	1.617	1.617	1.617	1.617	1.825	1.825	1.825	1.825	1.825	1.825	1.825	1.825	1.825	2.112	2.112	2.112	2.112	2.112	2.112	2.112	2.112	2.112	2.112	2.112	2.100	2.168	2.168	2.168	2.168	2.168	2.168	2.168	2.168	2.168	2.266	2.266	2.266	2.266	2.185	2.185	2.185	2.185	2.185	2.185	2.185	2.272	2.272	2.272	2.272	2.272	2.272	2.272	1.951	2.420	2.420	2.420	2.420	2.420	2.420	2.278	2.278	2.278	2.278	2.278	2.278	2.278	2.278	2.876	2.876	2.876	2.876	4.055	4.055	4.055	4.055	4.055	2.683	2.683	2.683	2.683	2.683	2.683	2.683	2.683	2.191	2.191	2.639	2.639	2.639	2.639	2.639	2.639	2.639	2.418	2.418	2.418	2.418	2.418	2.418	2.326	2.326	2.326	2.395	2.395	2.144	2.144	2.144	2.313	2.313	2.313	2.313	2.313	2.112	2.112	2.112	2.112	2.101	2.101	2.101	2.101	2.160	2.160	2.160	2.160	2.159	2.159	1.988	1.988	1.988	1.988	1.927	1.927	2.176	1.806	1.806	2.195	2.195	2.174	2.174	2.174	2.394	2.143	2.143	2.143	2.143	2.272	2.272	2.272	2.461	2.461	2.490	2.490	2.120	2.120	2.089	2.089	2.068	2.068	2.068	1.848	2.067	2.067	2.067	2.106	2.106	2.106	2.106	2.075	2.075	2.005	2.004	2.004	2.064	2.313	2.313	2.023	2.023	1.882	1.792	1.702	1.841	1.951	1.721	1.860	1.840	3.070	2.979	1.999	2.029	1.889	1.938	1.898	1.877	1.877	1.777	1.777	1.866	1.866	2.136	2.335	2.335	2.364	2.364	2.364	2.323	2.323	2.323	2.323	0.457	0.457	0.364	-0.413	-1.328	-2.139	-2.958	-3.598	-4.238	-4.989	-5.886	-6.868	-7.770	-8.428	-8.758	-8.709	-8.241	-7.329	-6.084	-4.691	-3.708	-2.977	-2.302	-1.596
10000000000.000	10000000000.000	10000000000.000	10000000000.000	10000000000.000	10000000000.000	10000000000.000	10000000000.000	10000000000.000	10000000000.000	10000000000.000	10000000000.000	10000000000.000	10000000000.000	10000000000.000	10000000000.000	10000000000.000	10000000000.000	10000000000.000	10000000000.000	10000000000.000	10000000000.000	10000000000.000	10000000000.000	10000000000.000	10000000000.000	10000000000.000	10000000000.000	10000000000.000	10000000000.000	10000000000.000	10000000000.000	10000000000.000	10000000000.000	10000000000.000	10000000000.000	10000000000.000	10000000000.000	10000000000.000	10000000000.000	10000000000.000	10000000000.000	10000000000.000	10000000000.000	10000000000.000	10000000000.000	10000000000.000	10000000000.000	10000000000.000	10000000000.000	10000000000.000	10000000000.000	10000000000.000	10000000000.000	10000000000.000	10000000000.000	10000000000.000	10000000000.000	10000000000.000	-4.628	-4.876	-5.015	-5.171	-5.425	-5.793	-6.418	-6.869	-7.163	-7.431	-7.684	-7.884	-7.948	-7.939	-7.838	-7.732	-7.694	-7.764	-7.683	-7.306	-6.444	-5.640	-4.918	-4.400	-3.950	-3.528	-3.064	-2.691	-2.461	-2.462	-3.496	-1.308	-1.308	-1.308	-0.229	-0.229	0.491	0.491	0.870	0.870	1.249	1.079	2.459	2.959	2.848	3.868	3.778	2.307	2.037	1.986	1.986	1.986	1.986	2.205	2.155	2.155	2.004	2.004	2.004	2.004	2.473	2.473	2.473	1.802	1.802	1.802	1.802	1.802	1.861	1.861	1.739	1.739	1.739	1.739	1.739	1.739	1.617	1.617	1.617	1.617	1.617	1.617	1.617	1.825	1.825	1.825	1.825	1.825	1.825	1.825	1.825	2.023	2.023	2.112	2.112	2.112	2.112	2.112	2.112	2.112	2.112	2.112	2.112	2.168	2.168	2.168	2.168	2.168	2.168	2.168	2.168	2.168	2.168	2.168	2.266	2.266	2.185	2.185	2.185	2.185	2.185	2.185	2.185	2.185	2.272	2.272	2.272	2.272	2.272	2.272	1.951	1.951	1.951	1.951	1.951	2.420	2.420	2.420	2.278	2.278	2.278	2.278	2.278	2.278	2.278	2.278	2.876	2.876	2.876	2.876	2.876	4.055	4.055	4.055	4.055	2.683	2.683	2.683	2.683	2.683	2.683	2.683	2.191	2.191	2.191	2.191	2.639	2.639	2.639	2.639	2.639	2.639	2.418	2.418	2.418	2.418	2.418	2.326	2.326	2.326	2.326	2.395	2.395	2.395	2.395	2.464	2.464	2.313	2.313	2.313	2.313	2.112	2.112	2.112	2.112	2.101	2.101	2.101	2.101	2.160	2.160	2.160	2.160	2.159	2.159	1.988	1.988	1.988	1.927	1.927	1.927	1.806	1.806	1.806	2.205	2.205	2.174	2.174	2.174	2.174	2.174	2.183	2.183	2.183	2.812	2.812	1.951	1.951	1.951	2.490	2.490	2.490	1.940	2.089	2.089	2.068	2.068	2.068	1.848	1.848	2.067	2.067	2.106	2.106	1.906	1.975	1.975	1.955	2.005	2.004	2.004	2.064	2.064	2.313	2.063	1.933	1.882	1.772	1.881	1.671	1.951	1.851	2.010	3.400	3.090	2.229	2.019	1.929	1.838	1.938	1.858	1.858	1.827	1.777	1.777	1.866	2.226	2.226	2.335	2.335	2.364	2.364	2.364	2.364	2.323	2.323	1.173	1.173	0.413	0.039	-0.819	-1.694	-2.510	-3.041	-3.648	-4.367	-5.277	-6.359	-7.495	-8.309	-8.783	-8.892	-8.602	-7.864	-6.635	-5.392	-4.297	-3.450	-2.761	-2.133	-1.438
10000000000.000	10000000000.000	10000000000.000	10000000000.000	10000000000.000	10000000000.000	10000000000.000	10000000000.000	10000000000.000	10000000000.000	10000000000.000	10000000000.000	10000000000.000	10000000000.000	10000000000.000	10000000000.000	10000000000.000	10000000000.000	10000000000.000	10000000000.000	10000000000.000	10000000000.000	10000000000.000	10000000000.000	10000000000.000	10000000000.000	10000000000.000	10000000000.000	10000000000.000	10000000000.000	10000000000.000	10000000000.000	10000000000.000	10000000000.000	10000000000.000	10000000000.000	10000000000.000	10000000000.000	10000000000.000	10000000000.000	10000000000.000	10000000000.000	10000000000.000	10000000000.000	10000000000.000	10000000000.000	10000000000.000	10000000000.000	10000000000.000	10000000000.000	10000000000.000	10000000000.000	10000000000.000	10000000000.000	10000000000.000	10000000000.000	10000000000.000	10000000000.000	10000000000.000	-4.545	-4.687	-4.766	-4.809	-5.016	-5.252	-5.685	-6.120	-6.577	-7.133	-7.516	-7.775	-7.910	-7.936	-7.858	-7.727	-7.621	-7.572	-7.438	-7.082	-6.488	-5.774	-5.179	-4.731	-4.341	-3.734	-3.309	-2.935	-2.649	-3.496	-2.446	-2.457	-1.308	-0.229	-0.229	-0.229	-0.229	0.500	0.500	0.860	1.079	1.079	1.809	2.628	2.788	3.388	3.838	2.167	2.047	2.007	1.936	1.736	2.186	2.205	2.205	2.265	2.265	2.265	2.004	2.473	2.473	2.473	2.473	2.473	1.802	1.802	1.861	1.861	1.861	1.861	1.739	1.739	1.739	1.739	1.739	1.739	1.617	1.617	1.617	1.617	1.617	1.617	1.617	1.825	1.825	1.825	1.825	1.825	1.825	1.825	1.825	2.023	2.023	2.023	2.112	2.112	2.112	2.112	2.112	2.112	2.112	2.112	2.080	2.080	2.168	2.168	2.168	2.168	2.168	2.168	2.168	2.168	2.168	2.168	2.176	2.185	2.185	2.185	2.185	2.185	2.185	2.185	2.185	2.185	2.185	2.272	2.272	2.272	2.272	1.951	1.951	1.951	1.951	1.951	1.951	1.951	1.951	2.278	2.278	2.278	2.278	2.278	2.278	2.278	2.278	2.876	2.876	2.876	2.876	2.876	2.876	2.876	2.876	4.055	2.683	2.683	2.683	2.683	2.683	2.683	2.683	2.683	2.191	2.191	2.191	2.191	2.191	2.639	2.639	2.639	2.639	2.418	2.418	2.418	2.418	2.418	2.418	2.326	2.326	2.326	2.326	2.395	2.395	2.395	2.395	2.464	2.464	2.464	2.313	2.043	2.043	2.112	2.112	2.112	2.112	2.101	2.101	2.101	2.101	2.160	2.160	2.160	2.159	2.159	2.159	1.988	1.988	1.988	1.927	1.927	1.927	1.806	1.806	1.806	2.205	2.205	2.174	2.174	2.174	2.174	2.174	2.183	2.183	2.183	2.812	2.812	1.951	1.951	1.951	2.490	2.490	1.940	1.940	2.089	2.089	2.089	2.068	1.848	1.848	1.848	2.087	1.907	2.086	1.906	1.906	1.975	1.975	1.955	2.005	1.844	1.944	1.874	2.023	2.023	2.063	1.933	1.942	1.822	1.881	1.801	1.861	2.030	3.230	3.090	2.180	2.079	2.069	1.929	1.999	1.918	1.898	1.827	1.827	1.867	1.867	1.867	2.226	2.226	2.405	2.405	2.364	2.364	2.364	1.974	1.974	1.173	1.173	1.173	0.181	-0.527	-1.437	-2.194	-2.744	-3.222	-3.787	-4.578	-5.788	-6.985	-7.998	-8.650	-8.959	-8.952	-8.568	-7.446	-6.154	-4.930	-3.965	-3.272	-2.612	-1.799	-1.144
10000000000.000	10000000000.000	10000000000.000	10000000000.000	10000000000.000	10000000000.000	10000000000.000	10000000000.000	10000000000.000	10000000000.000	10000000000.000	10000000000.000	10000000000.000	10000000000.000	10000000000.000	10000000000.000	10000000000.000	10000000000.000	10000000000.000	10000000000.000	10000000000.000	10000000000.000	10000000000.000	10000000000.000	10000000000.000	10000000000.000	10000000000.000	10000000000.000	10000000000.000	10000000000.000	10000000000.000	10000000000.000	10000000000.000	10000000000.000	10000000000.000	10000000000.000	10000000000.000	10000000000.000	10000000000.000	10000000000.000	10000000000.000	10000000000.000	10000000000.000	10000000000.000	10000000000.000	10000000000.000	10000000000.000	10000000000.000	10000000000.000	10000000000.000	10000000000.000	10000000000.000	10000000000.000	10000000000.000	10000000000.000	10000000000.000	10000000000.000	10000000000.000	10000000000.000	-4.379	-4.498	-4.598	-4.600	-4.629	-4.773	-5.096	-5.687	-6.243	-6.808	-7.387	-7.698	-7.878	-7.960	-7.962	-7.876	-7.740	-7.542	-7.307	-6.957	-6.467	-5.954	-5.534	-5.004	-4.648	-4.207	-3.720	-3.281	-2.851	-2.544	-2.463	-2.435	-2.736	-0.229	-0.229	-0.229	0.500	0.500	0.500	0.860	0.860	0.919	1.809	2.118	2.118	2.588	3.608	4.357	2.167	1.937	1.736	1.736	2.186	2.205	2.205	2.265	2.265	2.265	1.784	2.473	2.473	2.473	2.473	2.473	1.862	1.861	1.861	1.861	1.861	1.861	1.739	1.739	1.739	1.739	1.739	1.739	1.617	1.617	1.617	1.617	1.617	1.617	1.617	1.825	1.825	1.825	1.825	1.825	1.825	1.825	2.023	2.023	2.023	2.023	2.023	2.112	2.112	2.112	2.112	2.112	2.112	2.080	2.080	2.080	2.080	2.168	2.168	2.168	2.168	2.168	2.168	2.168	2.168	2.176	2.176	2.176	2.185	2.185	2.185	2.185	2.185	2.185	2.185	2.185	2.185	2.185	2.863	1.951	1.951	1.951	1.951	1.951	1.951	1.951	1.951	1.951	1.951	2.039	2.039	2.278	2.278	2.278	2.278	2.278	2.876	2.876	2.876	2.876	2.876	2.876	2.876	2.876	2.876	2.324	2.683	2.683	2.683	2.683	2.683	2.683	2.683	2.191	2.191	2.191	2.191	2.191	2.191	2.110	2.110	2.110	2.468	2.468	2.468	2.418	2.418	2.418	2.326	2.326	2.326	2.326	2.326	2.395	2.395	2.395	2.464	2.464	2.464	2.464	2.043	2.043	2.043	2.043	2.112	2.112	2.161	2.161	2.161	2.101	2.180	2.160	2.160	2.160	2.159	2.159	2.159	2.159	1.988	1.988	1.927	1.927	1.927	1.806	1.806	1.806	2.205	2.205	2.174	2.174	2.174	2.174	2.174	2.183	2.183	2.183	2.812	2.812	1.951	1.951	1.951	2.490	2.490	1.940	1.940	1.940	2.089	1.959	2.118	2.118	1.978	2.087	2.087	1.907	2.086	2.086	1.906	2.006	1.965	1.955	1.925	1.844	1.944	1.944	1.953	2.223	2.023	1.812	1.932	1.922	1.911	1.971	2.401	3.271	3.220	2.270	2.300	2.099	2.099	2.099	1.999	1.898	1.898	1.898	1.877	1.867	1.867	1.867	2.226	2.405	2.405	2.405	2.405	2.364	1.974	1.974	1.974	1.974	-0.059	0.076	-0.307	-1.181	-2.098	-2.786	-3.240	-3.632	-4.036	-5.077	-6.293	-7.513	-8.373	-8.782	-8.982	-8.911	-8.362	-7.234	-5.831	-4.680	-3.767	-2.931	-2.301	-1.648	-1.061
10000000000.000	10000000000.000	10000000000.000	10000000000.000	10000000000.000	10000000000.000	10000000000.000	10000000000.000	10000000000.000	10000000000.000	10000000000.000	10000000000.000	10000000000.000	10000000000.000	10000000000.000	10000000000.000	10000000000.000	10000000000.000	10000000000.000	10000000000.000	10000000000.000	10000000000.000	10000000000.000	10000000000.000	10000000000.000	10000000000.000	10000000000.000	10000000000.000	10000000000.000	10000000000.000	10000000000.000	10000000000.000	10000000000.000	10000000000.000	10000000000.000	10000000000.000	10000000000.000	10000000000.000	10000000000.000	10000000000.000	10000000000.000	10000000000.000	10000000000.000	10000000000.000	10000000000.000	10000000000.000	10000000000.000	10000000000.000	10000000000.000	10000000000.000	10000000000.000	10000000000.000	10000000000.000	10000000000.000	10000000000.000	10000000000.000	10000000000.000	10000000000.000	10000000000.000	-4.266	-4.381	-4.441	-4.433	-4.431	-4.573	-4.890	-5.424	-6.064	-6.800	-7.309	-7.661	-7.877	-7.996	-8.038	-7.987	-7.891	-7.707	-7.411	-7.026	-6.625	-6.135	-5.891	-5.647	-5.273	-4.749	-4.070	-3.593	-3.125	-2.795	-2.523	-2.433	-2.736	-2.736	-0.229	-0.229	0.500	0.500	0.500	0.860	0.919	0.919	1.309	1.309	2.128	2.278	3.097	3.847	2.097	2.116	2.036	2.036	2.186	1.935	1.845	2.265	2.265	1.784	1.784	1.784	2.473	2.473	2.473	1.862	1.862	1.861	1.861	1.861	1.861	1.861	1.861	1.739	1.739	1.739	1.739	1.739	1.617	1.617	1.617	1.617	1.617	1.617	1.617	1.846	1.825	1.825	1.825	1.825	1.825	2.023	2.023	2.023	2.023	2.023	2.023	2.023	2.112	2.112	2.112	2.112	2.080	2.080	2.080	2.080	2.080	2.080	2.168	2.168	2.168	2.168	2.168	2.168	2.176	2.176	2.176	2.176	2.176	2.185	2.185	2.185	2.185	2.185	2.185	2.185	2.185	2.863	2.863	2.863	1.951	1.951	1.951	1.951	1.951	1.951	1.951	1.951	2.039	2.039	2.039	2.039	2.039	2.278	2.278	2.278	2.876	2.876	2.876	2.876	2.876	2.876	2.876	2.876	2.324	2.324	2.324	2.324	2.683	2.683	2.683	2.683	2.683	2.191	2.191	2.191	2.191	2.191	2.191	2.110	2.110	2.110	2.468	2.468	2.468	2.468	2.468	2.326	2.326	2.326	2.326	2.326	2.395	2.395	2.395	2.395	2.464	2.464	2.464	2.464	2.043	2.043	2.043	2.043	2.242	2.242	2.161	2.161	2.161	2.180	2.180	2.180	2.279	2.279	2.159	2.159	2.159	2.168	2.168	2.197	2.197	2.016	2.016	2.016	1.896	1.975	1.975	1.955	1.955	2.224	2.224	2.174	2.174	2.093	2.093	2.122	2.812	2.812	2.342	1.951	2.081	2.081	2.150	2.150	1.940	2.209	2.209	1.959	2.118	2.118	1.978	1.978	2.087	1.907	2.266	2.056	1.996	2.006	1.965	1.955	1.815	1.864	1.854	1.814	1.953	1.993	2.263	2.472	2.082	3.362	3.212	3.181	3.161	3.151	2.900	2.240	2.020	2.250	2.229	2.199	1.898	1.898	1.858	1.877	1.877	1.877	1.867	1.866	1.866	2.405	2.405	2.405	2.245	2.245	1.974	1.974	1.974	1.974	-0.218	-0.221	-0.849	-1.817	-2.796	-3.319	-3.763	-4.220	-4.794	-5.706	-6.882	-7.855	-8.540	-8.807	-8.845	-8.708	-8.194	-7.009	-5.589	-4.401	-3.392	-2.732	-2.171	-1.556	-1.010
10000000000.000	10000000000.000	10000000000.000	10000000000.000	10000000000.000	10000000000.000	10000000000.000	10000000000.000	10000000000.000	10000000000.000	10000000000.000	10000000000.000	10000000000.000	10000000000.000	10000000000.000	10000000000.000	10000000000.000	10000000000.000	10000000000.000	10000000000.000	10000000000.000	10000000000.000	10000000000.000	10000000000.000	10000000000.000	10000000000.000	10000000000.000	10000000000.000	10000000000.000	10000000000.000	10000000000.000	10000000000.000	10000000000.000	10000000000.000	10000000000.000	10000000000.000	10000000000.000	10000000000.000	10000000000.000	10000000000.000	10000000000.000	10000000000.000	10000000000.000	10000000000.000	10000000000.000	10000000000.000	10000000000.000	10000000000.000	10000000000.000	10000000000.000	10000000000.000	10000000000.000	10000000000.000	10000000000.000	10000000000.000	10000000000.000	10000000000.000	10000000000.000	10000000000.000	-4.130	-4.271	-4.338	-4.370	-4.377	-4.485	-4.812	-5.514	-6.194	-6.808	-7.295	-7.644	-7.865	-8.002	-8.028	-8.040	-8.020	-7.881	-7.601	-7.206	-6.861	-6.734	-6.648	-6.412	-5.774	-5.162	-4.425	-3.914	-3.473	-3.007	-2.689	-2.436	-2.736	-2.736	-1.369	-1.369	-1.369	0.270	0.270	0.729	0.729	0.919	1.309	1.309	1.848	2.038	2.057	3.697	3.877	2.387	2.156	1.876	1.935	1.935	1.845	1.845	2.084	1.784	1.784	1.784	1.784	1.862	1.862	1.862	1.862	1.862	1.861	1.861	1.861	1.861	1.861	1.739	1.739	1.739	1.739	1.818	1.818	1.818	1.617	1.617	1.617	1.846	1.846	1.846	1.846	1.846	1.825	1.825	1.825	2.023	2.023	2.023	2.023	2.023	2.023	2.023	2.023	2.112	2.080	2.080	2.080	2.080	2.080	2.080	2.080	2.080	2.080	2.168	2.168	2.168	2.168	2.176	2.176	2.176	2.176	2.176	2.176	2.185	2.185	2.185	2.185	2.185	2.185	2.185	2.863	2.863	2.863	2.863	1.951	1.951	1.951	1.951	1.951	1.951	1.951	1.951	2.039	2.039	2.039	2.039	2.039	2.039	2.327	2.327	2.876	2.876	2.876	2.876	2.876	2.876	2.876	2.876	2.324	2.324	2.324	2.324	2.324	2.683	2.112	2.112	2.191	2.191	2.191	2.191	2.191	2.191	2.110	2.110	2.110	2.110	2.468	2.468	2.468	2.468	2.468	2.657	2.657	2.326	2.326	2.326	2.395	2.395	2.395	2.395	2.464	2.464	2.464	2.464	2.043	2.043	2.043	2.242	2.242	2.242	2.161	2.161	2.161	2.180	2.180	2.180	2.279	2.279	2.279	2.149	2.149	2.168	2.168	2.197	2.197	2.197	2.016	2.016	1.896	1.975	1.975	1.955	1.955	2.224	2.224	2.174	2.174	2.093	2.093	2.122	2.122	2.342	2.342	2.171	2.081	2.081	2.150	2.150	2.060	2.209	2.209	1.959	2.058	1.968	1.978	1.997	2.027	2.017	2.266	2.056	1.986	1.916	2.005	1.855	1.885	1.884	1.854	2.184	2.133	3.443	3.203	3.122	3.202	3.692	2.972	2.331	2.461	2.311	2.160	2.130	2.130	2.189	2.189	2.199	2.058	1.858	1.858	1.858	1.877	1.857	1.857	1.866	1.866	1.866	2.405	2.245	2.245	2.245	2.245	1.974	1.974	-0.776	-0.641	-0.781	-1.511	-2.355	-3.379	-4.241	-4.677	-5.089	-5.677	-6.311	-7.354	-8.229	-8.676	-8.643	-8.593	-8.354	-7.680	-6.494	-4.924	-3.918	-3.225	-2.584	-1.997	-1.441	0.233
10000000000.000	10000000000.000	10000000000.000	10000000000.000	10000000000.000	10000000000.000	10000000000.000	10000000000.000	10000000000.000	10000000000.000	10000000000.000	10000000000.000	10000000000.000	10000000000.000	10000000000.000	10000000000.000	10000000000.000	10000000000.000	10000000000.000	10000000000.000	10000000000.000	10000000000.000	10000000000.000	10000000000.000	10000000000.000	10000000000.000	10000000000.000	10000000000.000	10000000000.000	10000000000.000	10000000000.000	10000000000.000	10000000000.000	10000000000.000	10000000000.000	10000000000.000	10000000000.000	10000000000.000	10000000000.000	10000000000.000	10000000000.000	10000000000.000	10000000000.000	10000000000.000	10000000000.000	10000000000.000	10000000000.000	10000000000.000	10000000000.000	10000000000.000	10000000000.000	10000000000.000	10000000000.000	10000000000.000	10000000000.000	10000000000.000	10000000000.000	10000000000.000	10000000000.000	-4.058	-4.184	-4.272	-4.319	-4.364	-4.540	-4.906	-5.497	-6.153	-6.713	-7.123	-7.508	-7.754	-7.859	-7.910	-7.958	-7.968	-7.874	-7.599	-7.398	-7.331	-7.381	-7.210	-6.939	-6.240	-5.502	-4.807	-4.168	-3.708	-3.305	-2.956	-2.601	-2.402	-2.407	-1.369	-1.369	-1.369	0.270	0.270	0.729	0.729	0.709	0.709	0.988	0.988	1.098	1.327	2.157	3.807	3.807	2.136	1.946	1.896	1.935	1.845	2.084	2.084	1.784	1.784	2.133	2.133	2.133	1.862	1.862	1.862	1.862	1.861	1.861	1.861	1.861	2.000	2.000	2.000	1.818	1.818	1.818	1.818	1.818	1.818	1.617	1.846	1.846	1.846	1.846	1.846	1.846	1.846	1.846	2.023	2.023	2.023	2.023	2.023	2.023	2.023	2.023	2.023	2.062	2.080	2.080	2.080	2.080	2.080	2.080	2.080	2.080	2.080	2.080	2.168	2.168	2.176	2.176	2.176	2.176	2.176	2.176	2.176	2.176	2.185	2.185	2.185	2.185	2.185	2.863	2.863	2.863	2.863	2.863	2.863	1.951	1.951	1.951	1.951	1.951	1.951	2.039	2.039	2.039	2.039	2.039	2.039	2.039	2.327	2.327	2.327	2.876	2.876	2.876	2.876	2.876	2.876	2.324	2.324	2.324	2.324	2.324	2.324	2.112	2.112	2.112	2.112	2.191	2.191	2.191	2.191	2.191	2.110	2.110	2.110	2.110	2.468	2.468	2.468	2.468	2.657	2.657	2.657	2.657	2.186	2.186	2.186	2.035	2.035	2.134	2.134	2.134	2.464	2.164	2.043	2.043	2.043	2.242	2.242	2.242	2.161	2.161	2.161	2.180	2.180	2.180	2.279	2.279	2.279	2.149	2.149	2.168	2.168	2.197	2.197	2.197	2.016	1.896	1.896	1.975	1.975	1.955	1.955	2.224	2.224	2.174	2.174	2.093	2.093	2.122	2.122	2.342	2.342	2.171	2.171	2.081	2.150	2.150	2.060	1.939	1.979	1.979	2.058	1.968	2.178	1.997	2.107	2.007	1.977	1.966	1.986	1.936	1.915	1.925	2.785	3.564	3.434	3.554	3.513	3.033	3.003	3.393	3.162	2.222	2.131	2.281	2.381	2.451	2.250	2.250	2.200	2.189	2.119	2.119	2.058	2.058	1.858	1.988	1.857	1.857	1.857	1.866	1.866	2.246	2.246	2.245	2.245	2.245	2.245	-1.461	-1.045	-1.045	-1.002	-1.290	-2.134	-3.248	-4.470	-5.132	-5.565	-5.784	-6.384	-7.159	-8.111	-8.631	-8.725	-8.550	-8.219	-7.730	-6.719	-5.726	-4.563	-3.667	-2.980	-2.378	-1.815	-1.254	-0.897
10000000000.000	10000000000.000	10000000000.000	10000000000.000	10000000000.000	10000000000.000	10000000000.000	10000000000.000	10000000000.000	10000000000.000	10000000000.000	10000000000.000	10000000000.000	10000000000.000	10000000000.000	10000000000.000	10000000000.000	10000000000.000	10000000000.000	10000000000.000	10000000000.000	10000000000.000	10000000000.000	10000000000.000	10000000000.000	10000000000.000	10000000000.000	10000000000.000	10000000000.000	10000000000.000	10000000000.000	10000000000.000	10000000000.000	10000000000.000	10000000000.000	10000000000.000	10000000000.000	10000000000.000	10000000000.000	10000000000.000	10000000000.000	10000000000.000	10000000000.000	10000000000.000	10000000000.000	10000000000.000	10000000000.000	10000000000.000	10000000000.000	10000000000.000	10000000000.000	10000000000.000	10000000000.000	10000000000.000	10000000000.000	10000000000.000	10000000000.000	10000000000.000	10000000000.000	-4.012	-4.060	-4.177	-4.275	-4.398	-4.578	-4.915	-5.403	-5.923	-6.457	-6.832	-7.087	-7.346	-7.579	-7.794	-7.899	-7.916	-7.805	-7.674	-7.634	-7.621	-7.719	-7.714	-7.337	-6.672	-5.773	-5.020	-4.445	-4.021	-3.590	-3.140	-2.803	-2.509	-2.377	-1.369	-1.369	-1.369	0.270	0.270	0.270	0.609	0.709	0.709	0.988	0.748	1.098	1.327	1.757	2.187	3.847	2.236	2.636	1.896	1.935	1.905	2.084	2.084	2.084	2.133	2.133	2.133	2.133	1.862	1.862	1.862	1.862	1.851	1.861	2.000	2.000	2.000	2.000	2.000	1.818	1.818	1.818	1.818	1.818	1.818	1.797	1.846	1.846	1.846	1.846	1.846	1.846	1.846	1.846	1.944	2.023	2.023	2.023	2.023	2.023	2.023	2.023	2.062	2.062	2.062	2.080	2.080	2.080	2.080	2.080	2.080	2.080	2.080	2.080	2.048	2.176	2.176	2.176	2.176	2.176	2.176	2.176	2.176	2.176	2.176	2.185	2.185	2.185	2.863	2.863	2.863	2.863	2.863	2.863	2.863	1.951	1.951	1.951	1.951	1.951	1.951	2.039	2.039	2.039	2.039	2.039	2.039	2.039	2.327	2.327	2.327	2.327	2.876	2.876	2.876	2.876	2.324	2.324	2.324	2.324	2.324	2.324	2.324	2.112	2.112	2.112	2.112	2.112	2.191	2.191	2.191	2.110	2.110	2.110	2.110	2.110	2.468	2.468	2.468	2.468	2.657	2.657	2.657	2.657	2.186	2.186	2.186	2.035	2.035	2.134	2.134	2.134	2.164	2.164	2.164	2.133	2.133	2.242	2.242	2.242	2.171	2.161	2.131	2.131	2.180	2.180	2.279	2.279	2.149	2.149	2.149	2.168	2.178	2.178	2.167	2.457	2.457	2.086	2.076	2.076	2.205	1.895	2.124	2.124	2.234	2.234	2.203	2.203	2.263	2.122	2.122	2.141	2.141	2.171	2.271	2.220	2.220	2.110	2.110	1.939	1.979	1.979	1.958	1.988	2.018	1.917	2.107	2.087	1.997	2.086	2.196	3.575	3.635	3.645	3.405	3.464	2.244	2.164	2.223	2.223	2.123	2.092	2.182	2.102	2.191	2.381	2.591	2.451	2.370	2.250	2.299	2.299	2.119	2.119	2.058	2.058	1.988	1.988	1.988	1.857	1.857	2.246	2.246	2.246	2.246	2.245	2.245	2.245	2.245	-1.764	-1.461	-1.347	-1.447	-2.095	-3.356	-4.519	-5.206	-5.805	-6.208	-6.652	-7.361	-8.008	-8.456	-8.803	-8.818	-8.539	-8.024	-7.193	-6.209	-5.100	-4.097	-3.326	-2.716	-2.095	-1.554	-1.111	0.985
10000000000.000	10000000000.000	10000000000.000	10000000000.000	10000000000.000	10000000000.000	10000000000.000	10000000000.000	10000000000.000	10000000000.000	10000000000.000	10000000000.000	10000000000.000	10000000000.000	10000000000.000	10000000000.000	10000000000.000	10000000000.000	10000000000.000	10000000000.000	10000000000.000	10000000000.000	10000000000.000	10000000000.000	10000000000.000	10000000000.000	10000000000.000	10000000000.000	10000000000.000	10000000000.000	10000000000.000	10000000000.000	10000000000.000	10000000000.000	10000000000.000	10000000000.000	10000000000.000	10000000000.000	10000000000.000	10000000000.000	10000000000.000	10000000000.000	10000000000.000	10000000000.000	10000000000.000	10000000000.000	10000000000.000	10000000000.000	10000000000.000	10000000000.000	10000000000.000	10000000000.000	10000000000.000	10000000000.000	10000000000.000	10000000000.000	10000000000.000	10000000000.000	10000000000.000	-3.993	-3.987	-4.122	-4.254	-4.405	-4.605	-4.880	-5.272	-5.723	-6.016	-6.261	-6.557	-7.028	-7.397	-7.697	-7.915	-7.952	-7.885	-7.781	-7.786	-7.846	-7.918	-7.865	-7.519	-6.841	-5.989	-5.251	-4.681	-4.243	-3.912	-3.535	-3.129	-2.763	-2.485	-2.410	-2.416	-1.369	0.270	0.270	0.609	0.609	0.609	0.749	0.748	0.748	0.918	0.918	1.027	1.277	3.906	3.836	2.156	1.926	1.875	1.905	1.905	2.244	2.244	2.244	2.133	2.133	2.133	1.862	1.862	1.851	1.851	1.851	1.851	2.000	2.000	2.000	2.000	2.000	1.818	1.818	1.818	1.818	1.818	1.818	1.797	1.797	1.846	1.846	1.846	1.846	1.846	1.846	1.944	1.944	1.944	2.023	2.023	2.023	2.023	2.023	2.062	2.062	2.062	2.062	2.062	2.080	2.080	2.080	2.080	2.080	2.080	2.080	2.048	2.048	2.048	2.176	2.176	2.176	2.176	2.176	2.176	2.176	2.176	2.176	2.176	2.184	2.863	2.863	2.863	2.863	2.863	2.863	2.863	2.863	2.863	1.951	1.951	1.951	1.951	2.039	2.039	2.039	2.039	2.039	2.039	2.039	2.327	2.327	2.327	2.327	2.327	2.327	2.327	2.555	2.555	2.324	2.324	2.324	2.324	2.324	2.324	2.324	2.112	2.112	2.112	2.112	2.112	2.161	2.161	2.161	2.160	2.110	2.110	2.110	2.110	2.468	2.468	2.468	2.468	2.657	2.657	2.657	2.657	2.186	2.186	2.186	2.035	2.035	2.134	2.134	2.134	2.164	2.164	2.164	2.133	2.133	2.133	1.952	2.171	2.171	2.171	2.131	2.131	2.100	2.100	2.149	2.149	2.079	2.079	2.168	2.168	2.178	2.178	2.167	2.457	2.457	2.086	2.076	2.076	2.205	1.895	2.124	2.384	2.384	2.234	2.203	2.263	2.263	2.302	2.122	2.122	2.141	2.171	2.271	2.220	2.110	2.110	1.939	1.899	1.979	1.979	1.958	2.128	2.198	2.247	2.627	3.557	3.506	3.586	3.476	3.466	2.225	2.275	2.245	2.214	2.254	2.204	2.193	2.143	2.023	2.113	2.252	2.222	2.122	2.381	2.581	2.611	2.390	2.390	2.299	2.299	2.219	2.228	2.228	2.228	1.988	1.988	1.988	2.177	2.177	2.246	2.246	2.246	2.246	2.246	2.245	0.161	0.161	-2.389	-1.764	-1.801	-2.353	-3.280	-4.157	-5.264	-6.087	-6.592	-6.966	-7.493	-7.867	-8.384	-8.759	-8.915	-8.832	-8.439	-7.814	-6.911	-5.819	-4.715	-3.767	-2.982	-2.414	-1.853	-1.316	-0.927	2.205
10000000000.000	10000000000.000	10000000000.000	10000000000.000	10000000000.000	10000000000.000	10000000000.000	10000000000.000	10000000000.000	10000000000.000	10000000000.000	10000000000.000	10000000000.000	10000000000.000	10000000000.000	10000000000.000	10000000000.000	10000000000.000	10000000000.000	10000000000.000	10000000000.000	10000000000.000	10000000000.000	10000000000.000	10000000000.000	10000000000.000	10000000000.000	10000000000.000	10000000000.000	10000000000.000	10000000000.000	10000000000.000	10000000000.000	10000000000.000	10000000000.000	10000000000.000	10000000000.000	10000000000.000	10000000000.000	10000000000.000	10000000000.000	10000000000.000	10000000000.000	10000000000.000	10000000000.000	10000000000.000	10000000000.000	10000000000.000	10000000000.000	10000000000.000	10000000000.000	10000000000.000	10000000000.000	10000000000.000	10000000000.000	10000000000.000	10000000000.000	10000000000.000	10000000000.000	-3.983	-4.005	-4.002	-4.166	-4.349	-4.573	-4.802	-5.100	-5.349	-5.594	-5.946	-6.304	-6.773	-7.345	-7.702	-7.923	-7.992	-7.967	-7.920	-7.885	-7.867	-7.886	-7.795	-7.450	-6.820	-6.114	-5.383	-5.026	-4.713	-4.345	-3.924	-3.487	-2.924	-2.627	-2.416	-2.433	-2.483	-0.610	-0.610	0.609	0.609	0.609	0.749	0.749	0.808	0.808	0.967	1.027	0.957	1.216	3.756	2.276	1.955	2.075	2.075	1.895	2.244	2.244	2.244	2.133	2.133	2.313	2.313	2.313	1.851	1.851	1.851	1.851	2.000	2.000	2.000	2.000	2.000	1.818	1.818	1.818	1.818	1.818	1.797	1.797	1.797	1.846	1.846	1.846	1.846	1.846	1.944	1.944	1.944	1.944	1.944	2.023	2.023	2.023	2.062	2.062	2.062	2.062	2.062	2.062	2.080	2.080	2.080	2.080	2.080	2.080	2.048	2.048	2.048	2.048	2.048	2.176	2.176	2.176	2.176	2.176	2.176	2.176	2.176	2.184	2.184	2.184	2.863	2.863	2.863	2.863	2.863	2.863	2.863	2.863	2.201	2.201	2.201	2.201	2.039	2.039	2.039	2.039	2.039	2.039	2.039	2.327	2.327	2.327	2.327	2.327	2.327	2.555	2.555	2.555	2.555	2.324	2.324	2.324	2.324	2.324	2.112	2.112	2.112	2.112	2.112	2.112	2.161	2.161	2.161	2.160	2.160	2.160	2.259	2.259	2.259	2.259	2.578	2.578	2.657	2.657	2.657	2.657	2.186	2.186	2.186	2.035	2.035	2.134	2.134	2.134	2.164	2.164	2.164	2.133	2.133	1.952	1.952	2.171	2.171	2.171	2.131	2.131	2.100	2.100	2.149	2.149	2.079	2.079	2.168	2.168	2.178	2.178	2.167	2.197	2.376	2.266	2.116	2.115	2.135	2.085	1.765	2.144	2.234	2.223	2.223	2.223	2.193	2.302	2.122	2.212	2.261	2.171	2.141	2.061	2.060	2.060	2.030	1.999	2.169	2.159	2.238	3.488	3.458	3.477	3.457	3.497	2.247	2.276	2.226	2.306	2.235	2.305	2.215	2.274	2.184	2.204	1.863	2.353	2.053	2.053	2.252	2.312	2.041	2.041	2.581	2.440	2.440	2.390	2.270	2.219	2.219	2.219	2.228	2.228	1.988	1.988	2.177	2.177	2.177	2.177	2.246	2.246	2.246	2.265	2.265	-3.401	-2.923	-2.734	-2.491	-2.723	-3.119	-4.100	-5.151	-6.034	-6.669	-7.095	-7.490	-7.926	-8.362	-8.707	-8.899	-8.917	-8.761	-8.416	-7.797	-6.855	-5.716	-3.354	-3.447	-2.749	-2.170	-1.586	-1.114	0.406	3.145
10000000000.000	10000000000.000	10000000000.000	10000000000.000	10000000000.000	10000000000.000	10000000000.000	10000000000.000	10000000000.000	10000000000.000	10000000000.000	10000000000.000	10000000000.000	10000000000.000	10000000000.000	10000000000.000	10000000000.000	10000000000.000	10000000000.000	10000000000.000	10000000000.000	10000000000.000	10000000000.000	10000000000.000	10000000000.000	10000000000.000	10000000000.000	10000000000.000	10000000000.000	10000000000.000	10000000000.000	10000000000.000	10000000000.000	10000000000.000	10000000000.000	10000000000.000	10000000000.000	10000000000.000	10000000000.000	10000000000.000	10000000000.000	10000000000.000	10000000000.000	10000000000.000	10000000000.000	10000000000.000	10000000000.000	10000000000.000	10000000000.000	10000000000.000	10000000000.000	10000000000.000	10000000000.000	10000000000.000	10000000000.000	10000000000.000	10000000000.000	10000000000.000	10000000000.000	-1.088	-4.002	-4.004	-4.076	-4.267	-4.503	-4.691	-4.879	-5.145	-5.404	-5.727	-6.218	-6.689	-7.212	-7.579	-7.818	-7.946	-7.989	-7.957	-7.878	-7.783	-7.687	-7.513	-7.185	-6.662	-6.230	-5.922	-5.620	-5.208	-4.642	-4.120	-3.707	-3.310	-2.961	-2.684	-2.512	-2.572	-0.610	-0.610	-0.610	0.609	0.749	0.749	0.749	0.808	0.808	0.967	0.907	0.987	0.986	2.416	3.906	2.196	2.055	1.955	1.895	2.204	2.244	2.193	2.193	2.193	2.313	2.313	2.313	1.851	1.851	1.851	1.851	2.000	2.000	2.000	2.000	2.000	1.899	1.818	1.818	1.818	1.797	1.797	1.797	1.797	1.797	1.846	1.846	1.846	1.944	1.944	1.944	1.944	1.944	1.944	1.944	2.023	2.062	2.062	2.062	2.062	2.062	2.062	2.062	2.062	2.080	2.080	2.080	2.080	2.048	2.048	2.048	2.048	2.048	2.048	2.176	2.176	2.176	2.176	2.176	2.176	2.176	2.184	2.184	2.184	2.184	2.863	2.863	2.863	2.863	2.863	2.863	2.863	2.201	2.201	2.201	2.201	2.201	2.201	2.039	2.039	2.039	2.039	2.039	2.039	2.327	2.327	2.327	2.327	2.327	2.327	2.555	2.555	2.555	2.555	2.555	2.324	2.324	2.324	2.324	2.112	2.112	2.112	2.112	2.112	2.161	2.161	2.161	2.161	2.160	2.160	2.160	2.259	2.259	2.259	2.259	2.578	2.578	2.578	2.287	2.287	2.336	2.336	1.916	1.916	1.916	2.075	2.075	2.124	2.174	2.174	2.174	2.203	2.133	2.133	1.952	1.952	1.952	2.171	2.171	2.131	2.131	2.100	2.100	2.149	2.149	2.079	2.079	1.938	2.188	2.188	2.177	2.137	2.197	2.376	2.266	2.116	2.105	2.145	2.145	1.965	2.174	2.164	2.454	2.233	2.223	2.193	1.942	1.962	2.212	2.261	2.071	2.151	2.080	2.110	2.140	2.070	2.519	3.609	3.409	3.578	3.558	3.458	2.317	2.247	2.297	2.186	2.186	2.246	2.196	2.235	2.235	2.215	2.254	2.184	2.104	1.863	2.353	2.193	2.242	2.242	2.312	2.041	2.041	2.371	2.371	2.360	2.270	2.270	2.270	2.219	2.238	2.238	2.408	2.408	2.408	2.177	2.177	2.177	2.177	-2.327	-2.327	2.265	2.265	2.265	-3.728	-3.581	-3.333	-3.134	-3.475	-4.193	-5.103	-5.935	-6.548	-7.016	-7.441	-7.884	-8.312	-8.655	-8.840	-8.941	-8.892	-8.735	-8.423	-7.831	-6.878	-5.443	-4.261	-3.271	-2.526	-1.977	-1.364	-0.719	0.816	3.505
10000000000.000	10000000000.000	10000000000.000	10000000000.000	10000000000.000	10000000000.000	10000000000.000	10000000000.000	10000000000.000	10000000000.000	10000000000.000	10000000000.000	10000000000.000	10000000000.000	10000000000.000	10000000000.000	10000000000.000	10000000000.000	10000000000.000	10000000000.000	10000000000.000	10000000000.000	10000000000.000	10000000000.000	10000000000.000	10000000000.000	10000000000.000	10000000000.000	10000000000.000	10000000000.000	10000000000.000	10000000000.000	10000000000.000	10000000000.000	10000000000.000	10000000000.000	10000000000.000	10000000000.000	10000000000.000	10000000000.000	10000000000.000	10000000000.000	10000000000.000	10000000000.000	10000000000.000	10000000000.000	10000000000.000	10000000000.000	10000000000.000	10000000000.000	10000000000.000	10000000000.000	10000000000.000	10000000000.000	10000000000.000	10000000000.000	10000000000.000	10000000000.000	10000000000.000	-1.088	-4.008	-4.046	-4.049	-4.170	-4.360	-4.571	-4.748	-4.967	-5.321	-5.677	-6.095	-6.490	-6.877	-7.241	-7.550	-7.855	-7.945	-7.949	-7.861	-7.706	-7.519	-7.280	-7.051	-6.903	-6.798	-6.603	-6.076	-5.449	-4.968	-4.599	-4.233	-3.815	-3.281	-2.948	-2.650	-2.609	-2.643	-0.610	-0.610	0.169	0.169	0.598	0.598	0.808	0.808	0.867	0.867	0.947	0.906	1.046	3.806	3.926	2.015	2.005	2.204	2.204	2.634	2.193	2.193	2.193	2.313	2.313	2.313	1.851	1.851	1.851	1.991	1.991	1.991	2.000	2.000	1.899	1.899	1.899	1.899	1.818	1.797	1.797	1.797	1.797	1.797	1.797	1.846	1.846	1.944	1.944	1.944	1.944	1.944	1.944	1.944	2.443	2.062	2.062	2.062	2.062	2.062	2.062	2.062	2.062	2.062	2.080	2.080	2.048	2.048	2.048	2.048	2.048	2.048	2.048	2.048	2.176	2.176	2.176	2.176	2.176	2.184	2.184	2.184	2.184	2.184	2.184	2.863	2.863	2.863	2.863	2.863	2.201	2.201	2.201	2.201	2.201	2.201	2.201	2.201	2.039	2.039	2.039	2.039	2.327	2.327	2.327	2.327	2.327	2.327	2.555	2.555	2.555	2.555	2.555	2.555	2.555	2.324	2.324	2.113	2.113	2.112	2.112	2.112	2.161	2.161	2.161	2.161	2.161	2.160	2.160	2.160	2.259	2.259	2.259	2.259	2.578	2.578	2.578	2.287	2.287	2.336	2.336	1.916	1.916	1.916	2.075	2.075	2.124	2.174	2.174	2.174	2.203	2.203	1.873	1.873	1.952	2.211	2.211	2.281	2.281	2.100	2.160	2.160	2.179	2.089	2.089	2.219	1.938	2.188	2.188	2.177	2.137	2.277	2.316	2.406	2.216	2.295	2.245	2.295	2.534	2.424	2.184	2.454	2.283	2.343	2.183	2.352	2.172	2.202	2.181	2.181	2.151	1.970	3.450	3.560	3.730	3.659	3.569	2.699	1.958	2.148	1.778	1.947	1.987	1.407	1.406	2.106	2.086	2.175	1.385	1.675	2.044	2.044	2.184	-0.281	1.343	1.343	2.193	-0.267	-0.307	-0.342	2.191	2.191	2.371	2.360	2.360	2.360	2.270	1.519	2.238	2.238	2.238	2.408	2.408	2.408	2.408	2.177	-1.723	-1.723	-2.116	-2.327	-2.780	2.265	-3.853	-4.002	-3.927	-3.884	-3.986	-4.397	-5.079	-5.684	-6.493	-6.962	-7.319	-7.683	-8.053	-8.456	-8.794	-8.928	-8.940	-8.838	-8.661	-8.315	-7.545	-6.541	-5.328	-4.151	-3.116	-2.342	-1.703	-0.963	-0.004	3.745	3.395
