ncols        271
nrows        125
XLLCORNER 384110.639003
YLLCORNER 1151316.10108
cellsize  30
NODATA_value -9999 
-8 -8 -8 -7 -7 -7 -7 -7 -7 -7 -7 -7 -7 -7 -7 -7 -7 -7 -7 -7 -7 -7 -7 -7 -7 -7 -7 -7 -7 -7 -7 -7 -7 -7 -7 -7 -7 -7 -7 -7 -7 -7 -6 -6 -6 -6 -6 -6 -6 -6 -6 -6 -6 -5 -5 -5 -5 -5 -5 -5 -5 -4 -4 -4 -4 -4 -4 -4 -4 -4 -4 -4 -3 -3 -3 -3 -3 -3 -3 -3 -3 -3 -3 -2 -2 -2 -2 -2 -2 -1 -1 -1 -1 -1 -1 -1 0 0 0 0 5 7 9 8 5 2 5 7 9 9 7 7 6 7 8 8 9 9 8 6 5 5 5 5 5 5 5 6 6 6 6 5 6 7 5 6 7 9 8 8 6 4 6 7 5 5 4 3 3 6 7 7 7 7 7 7 7 7 7 8 9 9 8 7 9 10 10 9 8 8 9 8 8 8 9 9 9 7 6 5 6 6 6 7 7 6 6 6 7 9 10 10 10 9 10 14 17 17 16 15 15 16 17 16 17 17 18 19 19 17 18 21 21 19 18 18 17 16 16 16 17 17 18 18 16 16 17 17 17 17 18 20 21 21 20 20 22 23 23 22 21 20 21 22 23 26 26 26 27 28 28 27 27 27 26 25 24 22 20 20 20 18 18 19 19 18 17 18 17 17 16
-8 -8 -8 -7 -7 -7 -7 -7 -7 -7 -7 -7 -7 -7 -7 -7 -7 -7 -7 -7 -7 -7 -7 -7 -7 -7 -7 -7 -7 -7 -7 -7 -7 -7 -7 -7 -7 -7 -7 -7 -7 -6 -6 -6 -6 -6 -6 -6 -6 -6 -6 -6 -6 -5 -5 -5 -5 -5 -5 -5 -5 -4 -4 -4 -4 -4 -4 -4 -4 -4 -4 -3 -3 -3 -3 -3 -3 -3 -3 -3 -3 -3 -2 -2 -2 -2 -2 -2 -2 -1 -1 -1 -1 -1 -1 0 0 0 0 0 5 7 7 7 5 3 4 6 7 7 6 7 6 6 7 7 7 7 7 6 5 6 6 6 6 6 6 6 6 6 7 6 8 10 10 11 10 9 9 8 6 6 5 3 2 2 4 3 4 6 6 6 6 7 7 7 8 8 8 9 9 8 6 6 8 10 10 9 7 7 9 10 9 7 8 9 9 9 9 8 10 10 9 8 7 6 6 6 6 8 10 10 10 10 10 14 16 16 15 15 16 18 20 19 18 17 18 20 19 19 21 23 22 20 19 18 17 16 16 15 15 16 18 17 16 17 16 16 17 18 19 20 19 19 20 20 21 22 21 20 20 19 19 20 22 24 25 25 25 26 26 25 25 25 25 24 23 21 19 20 20 18 18 17 17 17 18 18 17 18 18
-8 -8 -8 -8 -7 -7 -7 -7 -7 -7 -7 -7 -7 -7 -7 -7 -7 -7 -7 -7 -7 -7 -7 -7 -7 -7 -7 -7 -7 -7 -7 -7 -7 -7 -7 -7 -7 -7 -7 -7 -7 -6 -6 -6 -6 -6 -6 -6 -6 -6 -6 -6 -5 -5 -5 -5 -5 -5 -5 -5 -5 -4 -4 -4 -4 -4 -4 -4 -4 -4 -4 -3 -3 -3 -3 -3 -3 -3 -3 -3 -3 -3 -2 -2 -2 -2 -2 -2 -1 -1 -1 -1 -1 -1 0 0 0 0 0 0 4 6 6 5 5 4 2 3 5 5 5 6 7 6 6 6 5 6 6 6 6 6 7 7 6 6 5 5 5 6 6 6 8 11 13 12 10 9 9 7 5 5 5 4 0 1 2 4 4 6 6 5 6 7 7 7 8 8 8 9 8 8 7 8 8 8 8 7 7 8 11 13 12 11 10 10 11 11 13 13 12 13 11 10 9 8 6 5 6 8 10 10 10 11 11 13 15 15 15 16 17 19 21 21 19 18 19 20 20 21 23 23 21 19 17 17 17 17 16 15 15 16 17 17 17 17 16 16 17 18 18 19 18 19 19 19 20 20 19 19 19 18 18 19 21 22 23 23 23 24 25 25 24 24 23 23 23 21 20 20 20 20 19 18 17 17 18 18 18 18 18
-8 -8 -8 -8 -8 -7 -7 -7 -7 -7 -7 -7 -7 -7 -7 -7 -7 -7 -7 -7 -7 -7 -7 -7 -7 -7 -7 -7 -7 -7 -7 -7 -7 -7 -7 -7 -7 -7 -7 -7 -7 -6 -6 -6 -6 -6 -6 -6 -6 -6 -6 -5 -5 -5 -5 -5 -5 -5 -5 -5 -5 -4 -4 -4 -4 -4 -4 -4 -4 -4 -4 -3 -3 -3 -3 -3 -3 -3 -3 -3 -3 -2 -2 -2 -2 -2 -2 -1 -1 -1 -1 -1 -1 -1 0 0 0 0 0 2 3 7 8 5 4 4 1 2 3 5 6 6 6 6 6 6 5 6 6 6 6 6 7 7 7 6 5 5 6 6 6 7 9 11 13 12 10 9 8 7 4 5 5 4 4 2 1 2 4 5 6 6 6 7 8 7 7 8 8 8 8 8 9 9 8 6 6 6 8 11 13 15 15 13 12 12 12 12 13 14 14 13 12 11 10 8 6 5 5 7 9 10 11 11 11 12 13 16 17 17 18 20 22 22 20 19 20 20 21 22 23 22 19 17 16 16 17 18 17 16 15 16 17 18 18 18 18 18 18 18 18 18 19 19 20 19 19 19 19 19 18 18 18 19 20 21 21 22 23 24 24 24 24 23 23 23 23 22 21 21 20 20 19 18 18 18 18 18 18 18 18
-8 -8 -8 -8 -8 -7 -7 -7 -7 -7 -7 -7 -7 -7 -7 -7 -7 -7 -7 -7 -7 -7 -7 -7 -7 -7 -7 -7 -7 -7 -7 -7 -7 -7 -7 -7 -7 -7 -7 -7 -7 -6 -6 -6 -6 -6 -6 -6 -6 -6 -6 -5 -5 -5 -5 -5 -5 -5 -5 -5 -5 -4 -4 -4 -4 -4 -4 -4 -4 -4 -4 -3 -3 -3 -3 -3 -3 -3 -3 -3 -3 -2 -2 -2 -2 -2 -2 -1 -1 -1 -1 -1 -1 0 0 0 0 0 0 4 6 10 11 7 4 4 3 3 4 6 6 6 6 6 6 6 6 7 7 7 7 6 6 6 6 6 5 5 6 6 6 7 8 10 10 10 11 10 9 8 6 6 5 6 9 7 4 3 5 6 7 8 7 7 8 7 7 8 8 8 8 8 9 8 7 7 7 8 8 11 13 14 14 13 12 11 12 12 12 12 13 12 12 11 10 9 7 6 6 7 9 9 10 10 10 11 12 14 17 18 19 21 24 23 21 20 20 21 22 23 23 20 18 17 16 17 18 19 18 16 16 16 17 17 17 17 19 20 19 18 18 18 20 20 20 19 19 18 18 17 16 17 17 18 19 20 20 21 22 23 23 23 23 23 23 22 22 22 21 20 19 19 19 19 18 18 18 18 17 18 17
-8 -8 -8 -8 -8 -8 -8 -8 -8 -8 -8 -8 -8 -8 -8 -8 -8 -8 -8 -8 -8 -7 -7 -7 -7 -7 -7 -7 -7 -7 -7 -7 -7 -7 -7 -7 -7 -7 -7 -7 -6 -6 -6 -6 -6 -6 -6 -6 -6 -6 -5 -5 -5 -5 -5 -5 -5 -5 -5 -5 -4 -4 -4 -4 -4 -4 -4 -4 -4 -4 -3 -3 -3 -3 -3 -3 -3 -3 -3 -3 -2 -2 -2 -2 -2 -2 -1 -1 -1 -1 -1 -1 0 0 0 0 0 0 8 8 10 13 14 9 5 4 4 5 6 7 7 5 4 5 6 7 7 7 7 6 6 5 4 5 5 5 6 6 6 6 5 7 8 7 8 8 9 10 9 9 9 8 8 9 11 10 7 4 6 7 9 9 8 7 8 8 9 11 10 9 8 8 9 8 7 8 10 10 10 11 14 14 12 12 11 10 11 12 11 10 11 12 11 10 9 8 7 7 6 7 8 9 8 8 8 10 11 12 15 17 19 21 23 23 21 20 21 23 23 23 22 20 19 18 17 18 19 19 18 17 17 16 16 15 15 16 18 19 19 17 17 18 19 20 19 19 18 17 16 15 15 16 17 17 18 19 20 21 22 22 22 23 23 23 23 23 22 21 21 20 20 19 19 19 18 18 18 16 16 16 16
-8 -8 -8 -8 -8 -8 -8 -8 -8 -8 -8 -8 -8 -8 -8 -8 -8 -8 -8 -8 -8 -8 -8 -7 -7 -7 -7 -7 -7 -7 -7 -7 -7 -7 -7 -7 -7 -7 -7 -7 -6 -6 -6 -6 -6 -6 -6 -6 -6 -6 -5 -5 -5 -5 -5 -5 -5 -5 -5 -5 -4 -4 -4 -4 -4 -4 -4 -4 -4 -4 -3 -3 -3 -3 -3 -3 -3 -3 -3 -3 -2 -2 -2 -2 -2 -2 -1 -1 -1 -1 -1 0 0 0 0 0 0 0 13 10 10 13 13 10 8 5 5 6 6 6 6 5 4 5 6 7 7 7 6 5 4 4 4 3 3 5 7 7 7 6 7 8 8 7 7 7 8 8 7 8 9 10 11 10 10 10 8 6 6 7 9 10 9 9 9 10 12 13 13 11 9 8 9 10 10 11 11 11 11 12 14 14 12 12 11 10 11 13 12 10 10 11 11 10 10 8 8 8 8 7 8 7 6 6 7 8 10 12 14 15 17 19 21 21 21 21 22 23 23 23 22 21 20 19 18 20 19 20 19 17 16 15 14 14 14 15 16 17 17 17 16 17 17 17 17 18 18 16 16 15 16 16 18 19 19 19 20 21 21 22 22 23 23 23 24 24 23 21 20 20 20 19 19 18 18 18 18 17 16 16 16
-8 -8 -8 -8 -8 -8 -8 -8 -8 -8 -8 -8 -8 -8 -8 -8 -8 -8 -8 -8 -8 -8 -8 -8 -7 -7 -7 -7 -7 -7 -7 -7 -7 -7 -7 -7 -7 -7 -7 -7 -6 -6 -6 -6 -6 -6 -6 -6 -6 -5 -5 -5 -5 -5 -5 -5 -5 -5 -5 -5 -4 -4 -4 -4 -4 -4 -4 -4 -4 -4 -3 -3 -3 -3 -3 -3 -3 -3 -3 -2 -2 -2 -2 -2 -2 -1 -1 -1 -1 -1 -1 0 0 0 0 0 0 12 10 8 9 10 10 9 9 8 6 5 5 5 5 5 5 5 6 6 7 7 4 3 3 4 4 3 3 5 7 7 7 8 9 10 8 7 6 7 8 7 7 8 10 11 12 11 9 8 8 7 7 8 9 9 9 9 11 13 14 14 14 12 10 9 10 12 12 13 13 12 11 13 15 14 14 13 11 9 11 14 15 13 11 11 11 11 11 10 10 10 10 9 7 7 7 7 7 8 11 13 13 13 14 17 18 19 20 20 21 23 23 22 21 20 20 19 20 20 20 20 19 17 16 16 15 14 14 15 15 16 16 15 15 15 15 14 15 16 16 15 16 17 17 18 20 21 20 19 20 21 22 23 23 23 23 23 23 23 22 20 19 19 20 20 19 18 18 18 19 18 17 16 16
-8 -8 -8 -8 -8 -8 -8 -8 -8 -8 -8 -8 -8 -8 -8 -8 -8 -8 -8 -8 -8 -8 -8 -8 -8 -7 -7 -7 -7 -7 -7 -7 -7 -7 -7 -7 -7 -7 -7 -7 -6 -6 -6 -6 -6 -6 -6 -6 -5 -5 -5 -5 -5 -5 -5 -5 -5 -5 -5 -5 -4 -4 -4 -4 -4 -4 -4 -4 -4 -4 -3 -3 -3 -3 -3 -3 -3 -3 -2 -2 -2 -2 -2 -2 -2 -1 -1 -1 -1 -1 0 0 0 0 0 0 0 8 7 7 7 8 7 7 8 6 4 4 4 5 5 6 6 5 4 6 7 7 4 2 3 4 5 5 4 4 5 6 10 12 12 11 8 7 7 7 9 8 7 8 9 11 11 11 9 7 6 7 8 9 9 9 9 9 11 13 14 14 14 12 11 11 12 12 14 15 15 14 13 14 15 15 16 15 11 9 10 13 14 13 11 10 10 10 11 10 9 9 9 9 8 7 8 8 8 9 12 13 12 12 14 16 17 19 19 19 20 22 22 21 20 20 21 20 19 19 19 19 18 18 17 16 16 14 14 14 14 14 14 14 14 15 14 13 13 14 15 15 16 18 18 19 20 20 20 20 19 21 23 23 23 22 20 20 21 21 20 19 18 19 20 22 20 19 18 18 18 18 18 17 17
-8 -8 -8 -8 -8 -8 -8 -8 -8 -8 -8 -8 -8 -8 -8 -8 -8 -8 -8 -8 -8 -8 -8 -8 -8 -8 -7 -7 -7 -7 -7 -7 -7 -7 -7 -7 -7 -7 -7 -7 -6 -6 -6 -6 -6 -6 -6 -6 -5 -5 -5 -5 -5 -5 -5 -5 -5 -5 -5 -4 -4 -4 -4 -4 -4 -4 -4 -4 -4 -4 -3 -3 -3 -3 -3 -3 -3 -3 -2 -2 -2 -2 -2 -2 -1 -1 -1 -1 -1 -1 0 0 0 0 0 0 6 9 8 8 9 9 8 7 7 3 2 3 3 4 6 7 7 6 5 6 7 6 4 2 4 5 5 5 5 4 4 7 10 13 13 11 8 9 9 8 9 10 8 7 8 9 10 10 9 7 6 7 9 9 9 9 8 8 9 11 13 13 15 13 12 13 13 15 16 17 17 16 15 15 15 16 16 15 12 9 10 11 12 11 9 9 10 10 10 9 8 8 8 9 8 8 9 9 9 10 12 12 12 12 13 15 15 16 17 18 20 21 20 20 20 21 20 19 17 17 17 17 17 17 17 16 15 14 13 14 13 14 14 15 16 15 14 14 13 14 15 15 16 18 18 18 19 19 20 20 20 22 23 23 21 19 18 18 18 18 19 19 19 18 19 21 21 19 18 17 17 18 18 18 17
-8 -8 -8 -8 -8 -8 -8 -8 -8 -8 -8 -8 -8 -8 -8 -8 -8 -8 -8 -8 -8 -8 -8 -8 -8 -8 -8 -7 -7 -7 -7 -7 -7 -7 -7 -7 -7 -7 -7 -7 -6 -6 -6 -6 -6 -6 -6 -6 -5 -5 -5 -5 -5 -5 -5 -5 -5 -5 -5 -4 -4 -4 -4 -4 -4 -4 -4 -4 -4 -4 -3 -3 -3 -3 -3 -3 -3 -3 -2 -2 -2 -2 -2 -2 -1 -1 -1 -1 -1 0 0 0 0 0 0 0 7 8 10 10 10 10 9 7 5 2 2 3 3 4 6 7 8 7 7 7 5 4 3 4 5 6 6 5 6 6 5 6 9 11 12 12 10 11 11 9 10 9 7 6 7 10 9 10 9 8 7 8 9 10 9 7 8 8 9 11 13 14 15 15 14 14 16 17 19 20 18 17 16 16 16 15 16 16 13 11 10 10 9 7 7 8 9 9 9 9 7 7 8 8 8 8 10 10 9 9 11 12 12 12 12 12 12 14 16 18 19 19 20 19 20 18 18 17 16 16 16 16 15 15 16 15 13 14 15 15 14 14 15 16 15 14 13 14 14 14 15 16 18 18 18 19 20 20 20 21 21 22 23 23 21 18 18 18 17 18 18 19 19 17 18 19 19 18 18 18 17 17 17 17 18
-8 -8 -8 -8 -8 -8 -8 -8 -8 -8 -8 -8 -8 -8 -8 -8 -8 -8 -8 -8 -8 -8 -8 -8 -8 -8 -8 -7 -7 -7 -7 -7 -7 -7 -7 -7 -7 -7 -7 -6 -6 -6 -6 -6 -6 -6 -6 -5 -5 -5 -5 -5 -5 -5 -5 -5 -5 -5 -4 -4 -4 -4 -4 -4 -4 -4 -4 -4 -4 -3 -3 -3 -3 -3 -3 -3 -3 -2 -2 -2 -2 -2 -2 -1 -1 -1 -1 -1 -1 0 0 0 0 0 0 0 8 9 9 10 9 9 8 6 4 3 3 2 2 3 5 7 8 8 8 8 7 7 6 6 6 6 6 6 7 6 5 6 8 10 10 11 11 11 11 10 9 8 7 7 8 10 11 10 9 9 8 9 10 10 9 7 8 9 10 11 12 14 14 14 14 16 17 18 20 20 19 18 17 16 15 15 15 16 13 10 10 10 8 7 7 7 9 9 10 8 7 8 8 8 8 9 10 10 8 8 9 10 10 10 10 10 9 11 14 16 17 18 19 20 19 18 17 17 15 15 15 14 13 14 15 13 13 15 17 17 16 14 14 14 14 14 14 15 15 15 15 16 18 19 19 20 21 22 22 23 23 23 24 24 21 20 20 19 18 18 18 18 18 17 17 17 17 17 18 18 16 16 16 17 18
-8 -8 -8 -8 -8 -8 -8 -8 -8 -8 -8 -8 -8 -8 -8 -8 -8 -8 -8 -8 -8 -8 -8 -8 -8 -8 -8 -8 -7 -7 -7 -7 -7 -7 -7 -7 -7 -7 -7 -6 -6 -6 -6 -6 -6 -6 -6 -5 -5 -5 -5 -5 -5 -5 -5 -5 -5 -5 -4 -4 -4 -4 -4 -4 -4 -4 -4 -4 -4 -3 -3 -3 -3 -3 -3 -3 -3 -2 -2 -2 -2 -2 -2 -1 -1 -1 -1 -1 0 0 0 0 0 0 0 0 8 11 9 8 8 7 6 4 4 3 2 1 2 3 5 7 8 8 9 10 10 9 8 8 7 7 7 7 8 7 4 5 7 8 9 9 9 10 10 9 9 8 8 7 8 10 11 10 9 8 8 8 9 10 9 8 8 9 9 9 11 12 13 13 13 15 16 18 19 20 20 18 17 16 15 14 15 15 13 11 11 11 10 8 8 9 10 11 10 9 8 9 9 8 8 8 9 9 8 7 8 8 8 9 10 10 11 12 13 14 15 17 19 20 19 18 17 16 15 14 15 15 14 14 14 14 14 17 17 17 16 15 13 14 15 15 15 17 17 16 15 16 18 19 19 20 22 23 23 23 23 24 25 24 22 22 21 20 19 19 18 18 18 18 18 18 17 17 17 17 15 14 15 17 18
-8 -8 -8 -8 -8 -8 -8 -8 -8 -8 -8 -8 -8 -8 -8 -8 -8 -8 -8 -8 -8 -8 -8 -8 -8 -8 -8 -8 -7 -7 -7 -7 -7 -7 -7 -7 -7 -7 -7 -6 -6 -6 -6 -6 -6 -6 -5 -5 -5 -5 -5 -5 -5 -5 -5 -5 -5 -4 -4 -4 -4 -4 -4 -4 -4 -4 -4 -4 -3 -3 -3 -3 -3 -3 -3 -2 -2 -2 -2 -2 -2 -2 -1 -1 -1 -1 -1 0 0 0 0 0 0 0 0 1 8 11 10 9 8 7 5 4 5 4 1 0 1 3 5 7 8 9 11 12 11 10 9 9 8 8 7 6 8 7 4 5 6 7 8 7 8 9 9 10 9 8 8 8 8 9 10 10 8 8 8 8 9 9 9 10 9 8 8 9 11 12 13 14 16 13 15 17 18 19 18 19 18 16 16 16 16 15 14 12 12 12 10 9 10 11 12 13 12 10 9 10 10 8 8 8 9 9 9 8 7 7 7 8 10 12 13 13 13 13 14 17 19 19 18 16 15 14 14 14 14 15 15 14 14 14 15 16 15 15 16 15 14 14 15 16 17 19 19 17 16 17 18 18 18 19 21 23 23 22 22 24 25 24 24 22 21 21 20 19 18 18 18 18 19 18 18 17 17 16 15 15 16 17 18
-8 -8 -8 -8 -8 -8 -8 -8 -8 -8 -8 -8 -8 -8 -8 -8 -8 -8 -8 -8 -8 -8 -8 -8 -8 -8 -8 -7 -7 -7 -7 -7 -7 -7 -7 -7 -7 -7 -6 -6 -6 -6 -6 -6 -6 -6 -5 -5 -5 -5 -5 -5 -5 -5 -5 -4 -4 -4 -4 -4 -4 -4 -4 -4 -4 -4 -4 -3 -3 -3 -3 -3 -3 -3 -2 -2 -2 -2 -2 -2 -2 -1 -1 -1 -1 -1 0 0 0 0 0 0 0 0 0 7 9 10 11 11 10 7 6 6 6 3 1 0 2 4 6 7 8 10 12 13 12 11 9 9 10 9 9 8 7 7 5 5 6 6 7 6 7 8 9 10 9 8 8 10 9 8 8 9 10 10 9 9 9 9 9 9 9 8 10 13 14 15 15 18 19 17 16 16 17 17 17 17 17 16 16 17 17 16 15 13 13 12 11 10 11 11 12 12 12 11 10 10 10 9 9 8 9 9 9 8 6 6 7 8 9 12 13 14 14 13 14 16 17 18 17 14 13 13 13 12 13 14 14 13 14 15 16 16 15 15 16 16 17 16 16 17 18 19 18 16 16 18 18 17 17 17 20 23 23 22 22 24 24 25 25 23 21 21 21 19 19 18 19 19 19 19 18 17 17 17 17 16 17 17 17
-8 -8 -8 -8 -8 -8 -8 -8 -8 -8 -8 -8 -8 -8 -8 -8 -8 -8 -8 -8 -8 -8 -8 -8 -8 -8 -8 -7 -7 -7 -7 -7 -7 -7 -7 -7 -7 -7 -6 -6 -6 -6 -6 -6 -6 -5 -5 -5 -5 -5 -5 -5 -5 -5 -4 -4 -4 -4 -4 -4 -4 -4 -4 -4 -4 -4 -3 -3 -3 -3 -3 -3 -3 -2 -2 -2 -2 -2 -2 -2 -1 -1 -1 -1 -1 0 0 0 0 0 0 0 0 0 0 9 9 9 9 11 9 7 6 6 5 4 3 2 3 6 8 9 11 12 13 14 13 11 9 9 10 11 11 10 8 7 6 6 6 6 6 7 7 7 8 9 9 8 8 9 10 10 9 9 10 9 8 8 8 8 9 9 8 9 13 16 16 18 20 21 23 20 18 18 17 17 17 17 16 16 17 18 18 17 16 15 12 12 11 10 10 11 12 12 13 12 11 9 9 10 10 9 8 8 9 8 7 7 7 7 8 11 13 14 13 13 13 14 16 17 16 14 13 12 11 11 12 13 13 13 14 16 16 16 15 16 16 17 17 17 18 19 19 19 17 16 16 18 18 16 15 16 19 22 23 22 22 23 24 25 26 24 22 21 21 19 19 19 19 19 19 18 17 17 18 19 18 17 17 18 18
-8 -8 -8 -8 -8 -8 -8 -8 -8 -8 -8 -8 -8 -8 -8 -8 -8 -8 -8 -8 -8 -8 -8 -8 -8 -8 -7 -7 -7 -7 -7 -7 -7 -7 -7 -7 -7 -6 -6 -6 -6 -6 -6 -6 -6 -5 -5 -5 -5 -5 -5 -5 -5 -4 -4 -4 -4 -4 -4 -4 -4 -4 -4 -4 -4 -3 -3 -3 -3 -3 -3 -3 -2 -2 -2 -2 -2 -2 -2 -1 -1 -1 -1 -1 0 0 0 0 0 0 0 0 0 0 0 9 10 8 9 10 9 6 5 6 6 6 6 4 4 6 9 11 13 15 15 15 14 12 10 9 10 11 10 9 8 7 6 7 7 7 7 7 6 6 7 8 9 9 9 9 11 12 10 10 9 8 8 8 8 8 9 8 7 9 13 17 17 20 21 21 20 19 19 20 20 19 18 17 17 17 18 18 19 19 18 16 13 12 12 10 10 11 11 12 13 13 11 9 9 10 11 10 8 8 9 8 8 8 8 7 8 12 13 13 12 12 13 14 15 15 15 14 13 12 11 11 11 12 13 12 13 14 15 15 15 16 16 16 17 17 18 19 19 19 17 16 16 17 17 16 16 17 19 21 21 22 23 24 24 24 25 24 23 21 20 19 19 19 20 20 19 17 16 16 17 18 17 17 17 18 19
-8 -8 -8 -8 -8 -8 -8 -8 -8 -8 -8 -8 -8 -8 -8 -8 -8 -8 -8 -8 -8 -8 -8 -8 -8 -8 -7 -7 -7 -7 -7 -7 -7 -7 -7 -7 -7 -6 -6 -6 -6 -6 -6 -6 -5 -5 -5 -5 -5 -5 -5 -5 -4 -4 -4 -4 -4 -4 -4 -4 -4 -4 -4 -4 -3 -3 -3 -3 -3 -3 -3 -2 -2 -2 -2 -2 -2 -1 -1 -1 -1 -1 -1 0 0 0 0 0 0 0 0 0 0 0 0 8 9 10 10 9 8 6 4 4 6 8 6 4 5 8 11 14 16 17 16 15 15 14 12 11 10 10 9 8 8 7 7 8 8 8 8 7 6 6 8 9 9 9 9 9 10 11 11 10 9 8 9 9 10 9 10 9 7 10 14 18 20 22 21 20 19 19 20 22 22 22 20 18 18 19 19 19 18 18 17 16 15 15 14 13 11 10 10 10 12 12 10 8 8 9 11 11 9 8 8 8 9 10 9 7 8 11 12 13 12 13 14 14 14 14 14 14 13 13 12 12 12 13 13 12 12 13 14 15 15 16 16 18 18 19 19 19 19 19 18 16 16 16 18 18 17 18 19 20 21 23 24 24 24 24 24 24 23 21 19 18 18 19 21 21 18 16 16 16 16 15 16 16 17 18 18
-8 -8 -8 -8 -8 -8 -8 -8 -8 -8 -8 -8 -8 -8 -8 -8 -8 -8 -8 -8 -8 -8 -8 -8 -8 -8 -7 -7 -7 -7 -7 -7 -7 -7 -7 -7 -6 -6 -6 -6 -6 -6 -6 -6 -5 -5 -5 -5 -5 -5 -5 -5 -4 -4 -4 -4 -4 -4 -4 -4 -4 -4 -3 -3 -3 -3 -3 -3 -3 -3 -2 -2 -2 -2 -2 -2 -1 -1 -1 -1 -1 -1 0 0 0 0 0 0 0 0 0 0 0 0 5 5 8 9 9 9 8 6 3 3 5 6 6 6 8 10 13 16 18 19 18 17 16 15 14 13 11 10 9 9 10 8 8 9 9 9 9 7 5 6 7 8 7 8 9 9 9 10 11 11 9 9 10 11 12 13 12 11 10 12 14 17 20 23 21 20 20 20 22 22 24 24 24 21 19 20 20 19 18 16 15 16 16 17 16 14 12 11 11 11 11 11 9 8 8 8 9 10 10 9 9 9 10 11 10 10 10 9 10 11 12 13 15 16 15 14 13 13 13 12 12 13 13 12 13 13 13 14 14 14 15 16 18 19 20 20 20 20 21 21 21 20 17 17 19 19 19 19 18 20 21 24 25 24 23 23 23 23 23 21 19 17 17 18 20 21 18 17 17 17 16 16 17 18 19 18 18
-8 -8 -8 -8 -8 -8 -8 -8 -8 -8 -8 -8 -8 -8 -8 -8 -8 -8 -8 -8 -8 -8 -8 -8 -8 -8 -7 -7 -7 -7 -7 -7 -7 -7 -7 -7 -6 -6 -6 -6 -6 -6 -6 -5 -5 -5 -5 -5 -5 -5 -5 -4 -4 -4 -4 -4 -4 -4 -4 -4 -4 -3 -3 -3 -3 -3 -3 -3 -3 -2 -2 -2 -2 -2 -2 -1 -1 -1 -1 -1 -1 0 0 0 0 0 0 0 0 0 0 0 0 0 6 5 6 8 8 9 9 7 6 5 5 6 7 9 13 14 15 17 19 19 18 17 17 16 14 13 11 10 10 11 12 11 10 11 10 9 9 7 4 5 7 7 7 8 9 9 9 9 10 10 9 10 11 13 13 14 14 13 13 14 14 15 19 21 21 20 20 21 21 23 25 26 25 23 21 21 20 19 18 16 15 15 16 17 17 15 13 14 14 13 11 11 9 8 7 7 7 8 9 10 9 9 9 10 11 11 11 9 8 9 10 12 14 16 15 14 14 14 13 11 12 14 13 13 12 12 13 14 14 14 15 16 18 19 20 20 20 21 22 22 23 21 18 18 20 21 20 20 20 20 22 23 24 23 22 22 23 23 23 22 19 18 17 17 19 20 19 18 18 18 19 19 19 20 20 18 17
-8 -8 -8 -8 -8 -8 -8 -8 -8 -8 -8 -8 -8 -8 -8 -8 -8 -8 -8 -8 -8 -8 -8 -8 -8 -7 -7 -7 -7 -7 -7 -7 -7 -7 -7 -6 -6 -6 -6 -6 -6 -6 -6 -5 -5 -5 -5 -5 -5 -5 -4 -4 -4 -4 -4 -4 -4 -4 -4 -4 -3 -3 -3 -3 -3 -3 -3 -3 -2 -2 -2 -2 -2 -2 -1 -1 -1 -1 -1 -1 0 0 0 0 0 0 0 0 0 0 0 0 0 0 7 7 7 8 8 9 10 9 9 8 8 8 10 12 15 15 14 17 18 18 17 17 16 15 15 13 12 10 10 11 14 13 12 12 11 10 9 6 4 5 8 8 9 9 9 9 9 8 8 9 10 11 12 13 13 14 14 13 15 17 17 16 18 19 19 19 19 20 21 24 25 25 25 23 22 21 20 18 17 16 16 16 16 17 18 18 16 16 16 14 13 12 11 8 7 8 8 9 10 10 10 10 11 12 13 13 12 10 8 8 8 10 13 14 14 14 14 14 13 11 13 14 14 13 12 11 12 14 15 14 14 14 16 17 18 19 20 22 23 23 24 23 20 20 21 22 21 21 20 20 21 22 22 21 22 23 22 22 23 21 19 18 17 17 19 20 21 20 19 19 21 21 21 19 20 18 17
-8 -8 -8 -8 -8 -8 -8 -8 -8 -8 -8 -8 -8 -8 -8 -8 -8 -8 -8 -8 -8 -8 -8 -8 -8 -7 -7 -7 -7 -7 -7 -7 -7 -7 -7 -6 -6 -6 -6 -6 -6 -6 -5 -5 -5 -5 -5 -5 -5 -5 -4 -4 -4 -4 -4 -4 -4 -4 -4 -3 -3 -3 -3 -3 -3 -3 -3 -2 -2 -2 -2 -2 -2 -1 -1 -1 -1 -1 -1 0 0 0 0 0 0 0 0 0 0 0 0 0 8 7 8 9 9 8 8 8 8 7 7 7 9 11 14 17 18 17 16 17 17 16 16 17 17 17 15 14 13 12 10 10 12 12 11 10 11 10 8 6 5 7 9 10 10 10 10 11 10 9 9 9 10 12 12 13 14 15 14 15 17 20 19 18 18 17 18 19 19 20 21 22 22 22 21 21 21 21 19 17 15 15 16 16 16 17 20 20 17 16 16 15 14 13 10 8 8 9 10 11 12 13 12 11 12 14 14 14 14 12 9 8 8 11 12 12 13 13 14 13 13 12 13 13 13 12 12 12 12 13 15 14 13 14 14 14 15 17 20 22 23 24 24 24 23 22 22 23 21 20 20 20 19 20 21 21 22 23 23 22 22 22 20 19 19 20 20 21 22 20 18 19 21 21 20 19 19 18 16
-8 -8 -8 -8 -8 -8 -8 -8 -8 -8 -8 -8 -8 -8 -8 -8 -8 -8 -8 -8 -8 -8 -8 -8 -8 -7 -7 -7 -7 -7 -7 -7 -7 -7 -6 -6 -6 -6 -6 -6 -6 -6 -5 -5 -5 -5 -5 -5 -5 -4 -4 -4 -4 -4 -4 -4 -4 -4 -3 -3 -3 -3 -3 -3 -3 -3 -2 -2 -2 -2 -2 -2 -1 -1 -1 -1 -1 -1 0 0 0 0 0 0 0 0 0 0 0 0 0 0 8 8 9 9 8 6 6 6 6 0 4 5 8 13 17 20 19 19 18 18 17 17 17 19 19 19 16 15 14 12 11 10 10 10 9 10 11 11 9 8 7 8 9 10 10 11 12 12 11 11 12 11 11 12 12 13 15 16 15 16 18 20 20 19 19 19 19 19 20 20 20 20 19 18 19 19 19 20 19 17 16 16 16 15 16 18 20 19 17 16 15 15 14 13 10 8 7 8 11 12 13 14 13 11 12 14 14 14 14 14 11 9 9 11 12 12 12 13 12 12 12 13 13 13 13 13 13 13 14 14 15 15 15 15 15 15 16 18 21 22 23 23 23 24 23 23 23 24 23 21 21 20 20 21 22 21 21 22 23 23 23 23 23 21 21 21 21 22 22 21 18 20 21 21 20 19 19 17 17
-8 -8 -8 -8 -8 -8 -8 -8 -8 -8 -8 -8 -8 -8 -8 -8 -8 -8 -8 -8 -8 -8 -8 -8 -8 -7 -7 -7 -7 -7 -7 -7 -7 -6 -6 -6 -6 -6 -6 -6 -6 -5 -5 -5 -5 -5 -5 -5 -5 -4 -4 -4 -4 -4 -4 -4 -4 -3 -3 -3 -3 -3 -3 -3 -3 -3 -2 -2 -2 -2 -2 -1 -1 -1 -1 -1 -1 0 0 0 0 0 0 0 0 0 0 0 0 0 0 8 8 8 9 9 7 5 4 6 0 0 6 8 11 16 17 18 19 18 18 17 17 17 18 19 20 19 17 15 13 12 11 10 10 8 7 10 12 11 10 9 9 9 8 9 10 10 11 11 11 12 12 12 11 12 12 13 14 15 16 16 18 19 20 20 20 20 19 18 19 20 20 19 17 17 19 19 18 18 18 18 18 17 16 16 17 19 19 18 17 16 15 14 14 13 11 9 7 8 10 12 11 12 12 12 13 14 14 14 14 14 13 11 11 12 12 12 11 11 10 11 13 13 13 14 15 15 15 15 15 14 14 15 15 16 16 16 17 19 21 22 22 22 23 24 24 23 23 24 23 22 21 21 22 23 24 23 22 22 23 23 24 24 24 23 22 22 21 21 22 21 20 20 21 21 21 20 18 18 17
-8 -8 -8 -8 -8 -8 -8 -8 -8 -8 -8 -8 -8 -8 -8 -8 -8 -8 -8 -8 -8 -8 -8 -8 -8 -7 -7 -7 -7 -7 -7 -7 -7 -6 -6 -6 -6 -6 -6 -6 -6 -5 -5 -5 -5 -5 -5 -5 -4 -4 -4 -4 -4 -4 -4 -4 -3 -3 -3 -3 -3 -3 -3 -3 -3 -2 -2 -2 -2 -2 -1 -1 -1 -1 -1 -1 0 0 0 0 0 0 0 0 0 0 0 0 0 0 0 7 7 8 10 9 7 5 5 6 0 0 8 12 15 18 16 16 17 18 17 16 16 17 18 18 19 20 18 16 13 12 11 11 9 7 8 11 11 11 9 9 9 9 9 9 9 9 9 9 10 11 12 13 13 13 13 13 14 15 16 17 18 20 21 21 21 20 19 18 18 18 18 18 17 17 18 19 18 17 17 19 21 19 18 18 19 19 18 18 17 16 15 14 14 13 12 10 8 8 10 11 10 10 11 12 14 15 14 14 14 14 14 14 13 12 12 11 11 10 11 13 14 14 14 14 16 16 16 16 16 14 15 16 16 17 17 17 17 18 19 19 19 21 22 23 23 23 22 24 23 23 22 22 24 25 25 24 23 22 24 24 25 24 25 24 23 23 22 21 21 21 21 21 22 23 22 20 18 17 17
-8 -8 -8 -8 -8 -8 -8 -8 -8 -8 -8 -8 -8 -8 -8 -8 -8 -8 -8 -8 -8 -8 -8 -8 -8 -7 -7 -7 -7 -7 -7 -7 -7 -6 -6 -6 -6 -6 -6 -6 -5 -5 -5 -5 -5 -5 -5 -5 -4 -4 -4 -4 -4 -4 -4 -4 -3 -3 -3 -3 -3 -3 -3 -3 -2 -2 -2 -2 -2 -2 -1 -1 -1 -1 -1 0 0 0 0 0 0 0 0 0 0 0 0 0 0 0 5 6 7 8 9 9 6 5 0 0 0 8 11 15 18 18 17 16 16 17 17 15 15 17 17 18 18 17 17 15 13 11 11 10 9 9 10 11 11 10 9 9 9 10 9 9 9 9 9 9 9 10 13 15 16 15 14 14 15 16 17 17 19 20 21 22 21 20 18 17 17 17 17 17 16 16 17 18 17 17 18 19 21 20 19 19 19 18 17 17 16 15 15 14 14 14 14 12 10 10 10 10 10 11 12 13 14 15 14 14 16 16 15 15 14 12 12 13 12 11 12 14 15 15 15 15 16 16 16 16 16 15 17 17 18 19 18 17 17 17 18 18 19 21 22 22 22 21 21 23 23 24 24 25 26 26 26 24 23 22 24 25 24 24 24 24 25 25 23 22 20 21 22 23 23 24 22 19 19 18 18
-8 -8 -8 -8 -8 -8 -8 -8 -8 -8 -8 -8 -8 -8 -8 -8 -8 -8 -8 -8 -8 -8 -8 -8 -7 -7 -7 -7 -7 -7 -7 -7 -6 -6 -6 -6 -6 -6 -6 -6 -5 -5 -5 -5 -5 -5 -5 -4 -4 -4 -4 -4 -4 -4 -4 -3 -3 -3 -3 -3 -3 -3 -3 -2 -2 -2 -2 -2 -2 -1 -1 -1 -1 -1 0 0 0 0 0 0 0 0 0 0 0 0 0 0 4 4 6 7 7 8 8 8 6 0 0 0 9 9 13 17 18 17 16 15 16 16 16 16 16 16 17 17 15 14 14 13 12 11 10 10 9 10 11 12 11 10 9 10 10 11 10 10 9 10 9 9 9 9 11 14 15 14 14 15 16 17 17 17 19 21 22 23 20 19 17 16 16 17 17 17 15 14 15 16 17 19 20 20 20 20 19 19 19 18 17 17 16 14 13 13 13 14 14 13 12 11 11 10 10 12 13 14 14 14 13 14 16 17 16 16 15 13 14 15 15 13 12 14 16 16 15 16 16 17 18 17 17 17 19 19 19 18 18 17 17 18 19 20 20 21 21 21 21 20 20 22 23 25 27 28 29 29 26 24 22 22 23 24 24 23 23 24 25 25 25 22 21 21 23 23 23 23 22 21 20 20 19
-8 -8 -8 -8 -8 -8 -8 -8 -8 -8 -8 -8 -8 -8 -8 -8 -8 -8 -8 -8 -8 -8 -8 -8 -7 -7 -7 -7 -7 -7 -7 -7 -6 -6 -6 -6 -6 -6 -6 -5 -5 -5 -5 -5 -5 -5 -5 -4 -4 -4 -4 -4 -4 -4 -3 -3 -3 -3 -3 -3 -3 -3 -2 -2 -2 -2 -2 -2 -1 -1 -1 -1 -1 0 0 0 0 0 0 0 0 0 0 0 0 0 0 6 6 5 7 8 7 7 7 7 0 0 0 0 11 13 15 18 18 17 16 15 15 15 15 15 15 15 15 14 14 13 12 12 12 11 10 10 10 11 11 11 12 11 11 11 11 11 11 10 10 10 10 9 8 8 9 11 13 13 14 15 16 17 17 17 19 22 23 23 20 18 17 16 17 17 18 17 15 14 14 15 18 21 21 20 20 20 20 20 18 17 16 16 16 14 11 11 11 12 13 12 11 11 11 9 9 10 12 14 15 14 14 15 17 16 17 17 16 15 16 17 17 15 13 14 16 17 17 16 17 19 20 18 18 19 20 20 19 18 18 19 19 19 21 21 22 22 22 22 21 20 20 21 24 26 28 29 30 29 26 23 22 22 23 23 24 24 24 25 26 25 24 23 22 23 24 24 24 23 23 23 22 21 20
-8 -8 -8 -8 -8 -8 -8 -8 -8 -8 -8 -8 -8 -8 -8 -8 -8 -8 -8 -8 -8 -8 -8 -8 -7 -7 -7 -7 -7 -7 -7 -7 -6 -6 -6 -6 -6 -6 -6 -5 -5 -5 -5 -5 -5 -5 -4 -4 -4 -4 -4 -4 -4 -4 -3 -3 -3 -3 -3 -3 -3 -2 -2 -2 -2 -2 -2 -1 -1 -1 -1 -1 0 0 0 0 0 0 0 0 0 0 0 0 0 0 12 8 6 8 8 8 7 7 8 8 0 0 0 10 14 15 17 19 17 16 16 15 13 13 13 13 13 14 13 13 13 12 11 10 10 10 9 9 10 12 12 13 12 13 12 11 10 11 11 11 11 11 11 10 9 8 8 10 11 13 14 14 14 16 17 16 18 21 23 21 20 19 18 17 18 18 18 17 15 14 14 15 19 21 22 22 21 22 23 22 19 17 16 16 16 14 12 11 11 11 13 13 12 11 11 9 9 10 11 12 14 15 16 17 17 17 17 16 15 16 17 18 18 16 14 14 16 17 18 17 18 20 20 19 19 19 19 19 20 21 21 21 20 21 22 23 23 23 23 23 22 21 20 21 24 27 28 29 28 28 26 25 24 24 23 23 24 24 25 26 26 26 24 23 24 24 25 25 24 24 25 25 24 24 22
-8 -8 -8 -8 -8 -8 -8 -8 -8 -8 -8 -8 -8 -8 -8 -8 -8 -8 -8 -8 -8 -8 -8 -7 -7 -7 -7 -7 -7 -7 -7 -6 -6 -6 -6 -6 -6 -6 -6 -5 -5 -5 -5 -5 -5 -5 -4 -4 -4 -4 -4 -4 -4 -3 -3 -3 -3 -3 -3 -3 -2 -2 -2 -2 -2 -2 -1 -1 -1 -1 -1 0 0 0 0 0 0 0 0 0 0 0 0 0 0 8 8 9 9 10 10 9 9 9 9 0 0 0 9 12 15 16 17 18 16 16 15 14 12 12 12 12 12 11 11 10 10 10 9 8 8 9 9 11 12 14 14 13 12 12 12 10 10 10 11 12 12 12 11 10 10 9 9 10 12 13 14 14 14 14 15 15 17 19 20 19 19 20 19 18 19 17 16 16 14 13 13 15 18 21 24 24 24 25 24 23 20 18 17 16 16 15 13 12 11 11 14 15 13 12 10 9 10 10 10 11 13 15 17 19 18 18 17 16 15 15 17 18 17 15 15 15 16 18 19 19 19 20 20 19 20 20 19 19 20 22 23 22 22 23 25 25 25 25 24 23 22 21 22 23 25 28 29 29 28 27 26 26 25 24 22 22 23 24 26 26 26 26 25 25 25 26 26 27 24 24 27 28 28 26 25
-8 -8 -8 -8 -8 -8 -8 -8 -8 -8 -8 -8 -8 -8 -8 -8 -8 -8 -8 -8 -8 -8 -8 -7 -7 -7 -7 -7 -7 -7 -7 -6 -6 -6 -6 -6 -6 -6 -6 -5 -5 -5 -5 -5 -5 -5 -4 -4 -4 -4 -4 -4 -3 -3 -3 -3 -3 -3 -3 -2 -2 -2 -2 -2 -2 -1 -1 -1 -1 -1 0 0 0 0 0 0 0 0 0 0 0 0 0 0 0 5 7 9 10 10 9 10 9 9 9 0 0 8 11 14 17 17 16 15 15 15 15 13 12 11 12 13 12 11 9 8 8 8 8 7 8 9 11 12 14 15 15 14 11 11 11 11 10 10 11 12 13 12 11 11 11 11 11 12 13 13 14 14 13 13 13 13 13 15 17 18 19 20 20 18 17 15 14 15 15 14 14 16 17 21 25 25 26 25 24 22 20 19 17 16 15 15 14 14 12 12 14 15 14 12 11 9 9 9 9 11 12 14 16 18 18 17 17 16 15 15 15 15 15 14 14 15 16 18 20 20 19 19 19 19 20 20 20 20 21 24 24 23 23 24 26 27 26 25 25 24 24 23 24 25 26 27 28 29 29 27 25 25 25 24 23 22 23 25 26 27 27 27 28 29 27 26 27 27 25 25 26 27 28 27 27
-8 -8 -8 -8 -8 -8 -8 -8 -8 -8 -8 -8 -8 -8 -8 -8 -8 -8 -8 -8 -8 -8 -8 -7 -7 -7 -7 -7 -7 -7 -7 -6 -6 -6 -6 -6 -6 -6 -6 -5 -5 -5 -5 -5 -5 -4 -4 -4 -4 -4 -4 -4 -3 -3 -3 -3 -3 -3 -2 -2 -2 -2 -2 -2 -1 -1 -1 -1 -1 0 0 0 0 0 0 0 0 0 0 0 0 0 0 0 5 6 7 8 9 9 8 8 8 7 0 0 0 9 13 16 19 18 16 14 14 15 15 13 12 11 11 11 11 10 9 8 8 9 8 8 9 10 11 12 14 15 15 14 11 11 12 12 12 11 12 12 13 13 11 10 11 11 13 14 14 13 14 14 13 12 11 10 11 14 15 17 18 19 19 18 16 15 14 15 15 15 17 17 17 20 23 24 24 24 23 22 20 19 18 17 15 14 14 14 14 13 14 15 14 13 12 9 6 7 8 10 11 14 16 16 16 17 17 17 16 15 15 14 14 14 14 14 15 16 18 19 18 17 17 18 18 18 20 22 24 25 24 24 24 24 25 26 25 25 26 26 26 26 25 25 24 26 27 28 28 27 25 25 25 25 25 24 25 26 27 26 26 28 30 30 28 27 27 26 25 24 25 26 26 26 27
-8 -8 -8 -8 -8 -8 -8 -8 -8 -8 -8 -8 -8 -8 -8 -8 -8 -8 -8 -8 -8 -8 -7 -7 -7 -7 -7 -7 -7 -7 -7 -6 -6 -6 -6 -6 -6 -6 -6 -5 -5 -5 -5 -5 -5 -4 -4 -4 -4 -4 -4 -3 -3 -3 -3 -3 -3 -2 -2 -2 -2 -2 -2 -1 -1 -1 -1 -1 0 0 0 0 0 0 0 0 0 0 0 0 0 0 3 4 6 7 8 8 8 7 7 6 0 0 0 0 6 10 13 16 19 18 16 14 14 15 15 14 13 12 10 9 9 8 8 8 8 9 9 9 10 11 12 13 14 14 14 13 12 12 11 12 11 11 12 12 12 12 10 11 12 13 14 16 15 14 15 15 13 12 11 10 11 13 14 15 16 18 18 18 18 16 15 15 14 15 17 18 18 20 21 22 23 23 23 22 20 19 18 17 16 15 14 14 14 13 13 13 13 13 13 9 7 7 8 9 10 13 15 16 16 16 17 17 16 14 14 14 13 13 14 14 14 14 15 16 16 17 17 17 17 18 20 23 24 24 24 23 23 24 25 26 26 26 27 28 28 27 25 24 23 25 26 26 27 26 25 26 26 26 26 26 26 27 27 26 26 27 28 29 28 28 27 26 25 25 26 26 26 26 26
-8 -8 -8 -8 -8 -8 -8 -8 -8 -8 -8 -8 -8 -8 -8 -8 -8 -8 -8 -8 -8 -7 -7 -7 -7 -7 -7 -7 -7 -7 -7 -6 -6 -6 -6 -6 -6 -6 -6 -5 -5 -5 -5 -5 -5 -4 -4 -4 -4 -4 -4 -3 -3 -3 -3 -3 -2 -2 -2 -2 -2 -2 -1 -1 -1 -1 -1 0 0 0 0 0 0 0 0 0 0 0 0 0 0 0 4 5 7 8 8 8 7 7 0 0 0 0 0 6 9 11 13 15 16 17 15 14 13 14 16 15 14 12 11 9 7 7 7 7 7 7 9 10 10 10 11 12 12 12 12 13 13 12 12 12 11 11 12 11 11 11 11 12 13 13 14 15 15 15 16 16 14 12 11 9 11 13 14 15 16 18 19 19 18 16 15 14 14 14 16 18 20 21 21 21 21 22 22 21 20 19 18 17 17 16 15 13 12 12 12 13 13 13 13 10 8 9 9 9 11 13 14 15 15 15 15 16 14 13 13 14 14 13 13 14 14 13 13 14 14 16 18 17 17 17 19 21 22 21 21 22 23 24 25 26 26 27 28 29 28 27 25 24 24 24 25 26 27 26 26 27 27 27 27 26 26 27 27 26 26 26 26 28 28 28 27 26 26 26 26 26 26 26 26
-8 -8 -8 -8 -8 -8 -8 -8 -8 -8 -8 -8 -8 -8 -8 -8 -8 -8 -8 -8 -8 -7 -7 -7 -7 -7 -7 -7 -7 -7 -7 -6 -6 -6 -6 -6 -6 -6 -6 -5 -5 -5 -5 -5 -5 -4 -4 -4 -4 -4 -4 -3 -3 -3 -3 -3 -2 -2 -2 -2 -2 -1 -1 -1 -1 -1 0 0 0 0 0 0 0 0 0 0 0 0 0 0 0 5 6 9 0 0 0 0 0 0 0 0 0 0 8 9 10 12 13 14 15 16 15 13 13 15 17 16 13 13 11 9 7 7 7 6 6 6 8 9 9 9 10 10 11 11 12 13 14 13 12 12 12 12 12 12 11 11 11 12 13 13 13 14 15 16 17 17 16 13 11 10 11 13 14 14 15 18 18 17 17 16 15 15 16 16 17 18 21 22 21 21 21 21 21 21 21 20 18 18 18 16 14 12 12 12 13 14 13 13 13 12 11 11 10 10 11 12 13 14 14 15 16 17 16 15 15 15 14 14 14 14 13 12 13 13 14 16 17 16 16 16 17 19 18 19 20 21 23 25 26 26 26 27 28 28 27 26 25 25 24 25 25 26 27 27 27 27 26 27 27 27 26 27 27 26 26 25 25 27 28 28 28 27 27 27 26 27 27 27 28
-9 -8 -8 -8 -8 -8 -8 -8 -8 -8 -8 -8 -8 -8 -8 -8 -8 -8 -8 -8 -7 -7 -7 -7 -7 -7 -7 -7 -7 -7 -6 -6 -6 -6 -6 -6 -6 -6 -5 -5 -5 -5 -5 -5 -4 -4 -4 -4 -4 -4 -3 -3 -3 -3 -3 -2 -2 -2 -2 -2 -1 -1 -1 -1 -1 0 0 0 0 0 0 0 0 0 0 0 0 0 0 0 0 0 0 0 0 0 0 0 0 0 0 0 0 8 10 11 12 13 14 14 14 16 15 14 14 17 18 16 13 11 10 9 8 7 7 6 6 7 7 9 9 9 8 9 10 11 11 13 13 13 12 12 12 12 12 12 11 10 11 12 13 13 14 15 15 17 18 18 17 15 13 12 12 14 14 13 14 16 17 16 17 17 17 18 18 18 16 17 20 21 21 21 22 22 21 22 22 21 20 20 18 17 16 15 13 12 13 14 14 14 13 13 13 12 11 11 11 12 12 14 15 16 17 19 18 17 16 16 16 16 16 15 13 13 13 14 15 16 16 15 15 15 16 17 18 19 20 21 23 25 27 27 26 26 27 27 26 26 26 25 26 26 26 26 26 27 26 26 26 27 28 28 27 26 27 26 26 26 26 27 28 29 28 27 27 28 28 28 28 29 29
-9 -8 -8 -8 -8 -8 -8 -8 -8 -8 -8 -8 -8 -8 -8 -8 -8 -8 -7 -7 -7 -7 -7 -7 -7 -7 -7 -7 -7 -7 -6 -6 -6 -6 -6 -6 -6 -6 -5 -5 -5 -5 -5 -5 -4 -4 -4 -4 -4 -4 -3 -3 -3 -3 -3 -2 -2 -2 -2 -1 -1 -1 -1 -1 0 0 0 0 0 0 0 0 0 0 0 0 0 0 0 0 0 0 0 0 0 0 0 0 0 0 0 0 9 11 13 15 15 15 16 15 15 15 15 15 16 17 16 14 12 10 10 9 7 7 7 6 6 7 7 8 9 8 8 9 11 12 11 11 13 13 12 12 12 11 12 12 12 11 11 12 13 14 16 16 17 18 19 19 17 16 15 14 14 14 14 13 14 15 16 16 17 18 18 19 20 18 16 18 20 20 20 21 22 22 23 24 23 22 22 21 19 18 18 16 15 13 13 13 13 13 13 13 13 13 11 10 11 11 13 14 15 16 17 18 19 17 16 16 17 17 16 16 15 15 15 15 16 16 16 16 16 17 17 19 21 21 21 21 23 25 27 27 26 26 27 27 27 26 26 26 26 27 27 26 26 26 26 25 26 27 28 28 27 27 27 26 28 28 28 28 28 28 27 27 28 28 29 28 28 29 30
-9 -8 -8 -8 -8 -8 -8 -8 -8 -8 -8 -8 -8 -8 -8 -8 -8 -7 -7 -7 -7 -7 -7 -7 -7 -7 -7 -7 -7 -7 -6 -6 -6 -6 -6 -6 -6 -6 -5 -5 -5 -5 -5 -5 -4 -4 -4 -4 -4 -4 -3 -3 -3 -3 -2 -2 -2 -2 -2 -1 -1 -1 -1 0 0 0 0 0 0 0 0 0 0 0 0 0 0 0 0 0 0 0 0 0 0 0 0 0 5 5 7 10 14 15 16 17 18 18 17 17 15 15 14 14 14 14 12 11 10 9 9 8 7 7 7 7 7 6 6 6 7 7 8 9 12 12 10 10 12 13 12 12 12 12 12 13 12 12 13 13 14 16 17 17 17 19 20 20 19 17 17 17 16 15 14 15 16 16 15 16 19 20 20 22 23 21 19 21 23 22 22 22 23 23 23 23 24 23 22 22 20 19 18 18 17 15 14 14 13 13 13 14 14 13 11 10 11 12 13 13 14 15 16 18 19 17 16 18 19 19 18 18 17 17 16 16 16 16 16 17 18 18 19 21 23 23 22 22 22 25 26 27 26 25 25 26 27 28 28 27 26 27 28 27 26 26 26 26 26 27 27 28 27 27 26 26 27 28 29 28 27 27 27 27 27 28 28 28 27 28 30
-9 -8 -8 -8 -8 -8 -8 -8 -8 -8 -8 -8 -8 -8 -8 -8 -7 -7 -7 -7 -7 -7 -7 -7 -7 -7 -7 -7 -7 -7 -6 -6 -6 -6 -6 -6 -6 -6 -5 -5 -5 -5 -5 -5 -4 -4 -4 -4 -4 -3 -3 -3 -3 -3 -2 -2 -2 -2 -1 -1 -1 -1 0 0 0 0 0 0 0 0 0 0 0 0 0 0 0 0 0 0 0 0 0 0 5 3 4 5 7 9 10 14 16 17 18 18 18 17 16 16 15 14 13 12 11 10 10 8 8 7 7 8 8 7 8 8 7 6 5 5 5 7 9 11 12 12 11 10 11 12 12 12 12 11 11 12 12 13 14 15 16 18 18 17 18 19 21 21 20 20 19 19 18 16 16 16 17 16 16 18 20 21 23 24 25 24 24 25 25 25 25 24 23 23 23 23 24 24 22 21 20 20 19 18 18 17 16 15 15 15 14 14 13 11 10 10 11 12 13 14 15 16 16 18 19 19 17 18 20 20 19 19 19 18 17 17 16 16 16 16 17 18 19 21 22 22 22 22 23 24 25 25 25 25 25 25 27 28 28 27 26 26 26 27 27 26 26 26 26 26 27 27 27 27 26 26 27 27 27 27 27 27 27 26 26 25 25 27 27 28 30
-9 -8 -8 -8 -8 -8 -8 -8 -8 -8 -8 -8 -8 -8 -8 -7 -7 -7 -7 -7 -7 -7 -7 -7 -7 -7 -7 -7 -7 -6 -6 -6 -6 -6 -6 -6 -6 -6 -5 -5 -5 -5 -5 -5 -4 -4 -4 -4 -4 -3 -3 -3 -3 -2 -2 -2 -2 -2 -1 -1 -1 -1 0 0 0 0 0 0 0 0 0 0 0 0 0 0 0 0 0 0 0 0 7 7 6 6 7 8 9 12 14 15 17 17 18 17 16 15 14 13 13 12 12 10 8 8 8 7 7 6 6 8 8 8 8 8 7 6 5 5 6 9 11 12 12 12 11 11 12 12 12 12 12 11 10 11 12 13 14 16 17 17 17 17 18 20 21 20 21 22 22 21 20 19 18 18 17 17 17 18 19 20 22 25 26 26 26 26 25 26 26 25 25 25 24 24 23 22 20 19 19 20 19 18 18 18 17 17 17 17 16 14 12 11 11 10 10 12 14 14 15 16 16 18 20 19 19 19 20 19 19 20 21 20 19 18 18 17 17 17 17 17 19 20 21 22 22 23 23 24 24 25 26 27 27 26 26 27 28 27 27 26 25 25 26 27 27 27 27 27 26 27 28 28 27 26 25 26 26 26 27 27 27 26 25 23 24 26 28 29 31
-9 -8 -8 -8 -8 -8 -8 -8 -8 -8 -8 -8 -8 -8 -7 -7 -7 -7 -7 -7 -7 -7 -7 -7 -7 -7 -7 -7 -7 -6 -6 -6 -6 -6 -6 -6 -6 -6 -5 -5 -5 -5 -5 -4 -4 -4 -4 -4 -4 -3 -3 -3 -3 -2 -2 -2 -2 -1 -1 -1 -1 0 0 0 0 0 0 0 0 0 0 0 0 0 0 0 0 0 0 0 0 6 10 10 10 9 9 8 10 15 17 18 17 16 17 16 15 15 14 13 12 11 11 9 7 7 7 7 7 6 5 7 9 8 7 6 6 6 5 5 6 9 11 12 12 13 12 12 12 13 12 12 11 11 10 9 10 13 14 16 17 16 16 17 20 22 22 21 22 23 24 23 22 21 21 21 19 18 18 19 20 20 22 25 27 27 26 25 25 25 26 26 27 27 25 23 21 20 20 19 18 19 18 17 17 17 16 16 16 16 15 14 12 11 11 10 10 12 13 13 14 14 15 18 20 20 19 20 20 19 20 22 22 21 20 20 19 19 19 19 18 18 18 20 21 22 23 24 24 25 25 25 28 29 28 27 26 27 27 27 27 27 27 26 27 28 29 29 28 27 26 26 27 27 26 24 24 25 26 27 27 27 27 26 26 26 26 28 29 30 31
-9 -9 -8 -8 -8 -8 -8 -8 -8 -8 -8 -8 -8 -8 -7 -7 -7 -7 -7 -7 -7 -7 -7 -7 -7 -7 -7 -7 -6 -6 -6 -6 -6 -6 -6 -6 -6 -6 -5 -5 -5 -5 -5 -4 -4 -4 -4 -4 -3 -3 -3 -3 -3 -2 -2 -2 -2 -1 -1 -1 0 0 0 0 0 0 0 0 0 0 0 0 0 0 0 0 0 0 0 0 4 8 11 11 13 15 13 12 13 18 20 20 18 17 16 13 14 15 15 13 12 10 9 7 6 6 7 8 7 7 7 8 9 8 6 6 6 6 5 6 6 8 9 10 11 12 12 13 14 14 14 13 11 10 9 9 10 13 14 16 16 15 15 17 20 23 23 23 23 24 25 25 25 26 25 24 21 20 20 21 22 22 23 26 28 27 26 26 26 27 27 27 28 27 25 22 20 21 21 19 18 17 16 16 15 14 14 13 12 13 13 12 12 12 12 12 12 13 13 13 13 14 16 18 19 20 20 20 20 20 20 21 22 22 21 21 21 20 20 20 20 19 18 21 22 23 24 24 24 26 25 26 29 30 28 27 27 27 27 27 27 28 29 29 29 29 29 29 29 27 25 24 25 25 24 23 24 25 27 28 27 28 28 28 29 30 30 30 30 30 30
-9 -9 -8 -8 -8 -8 -8 -8 -8 -8 -8 -8 -8 -7 -7 -7 -7 -7 -7 -7 -7 -7 -7 -7 -7 -7 -7 -7 -6 -6 -6 -6 -6 -6 -6 -6 -6 -6 -5 -5 -5 -5 -5 -4 -4 -4 -4 -4 -3 -3 -3 -3 -2 -2 -2 -2 -1 -1 -1 -1 0 0 0 0 0 0 0 0 0 0 0 0 0 0 0 0 0 6 7 7 7 10 12 12 14 17 17 17 19 20 21 20 19 17 14 12 13 14 14 14 13 11 9 7 5 6 7 7 7 8 9 10 10 8 6 6 6 6 6 7 7 8 8 8 10 10 11 12 13 14 14 12 11 9 10 10 12 13 14 15 16 16 16 17 21 23 23 24 25 25 26 26 26 27 27 25 24 22 21 22 23 23 23 26 28 28 27 27 29 29 28 27 28 27 25 23 22 23 23 21 18 17 16 16 13 12 11 11 10 10 10 11 13 14 14 13 13 14 14 13 14 15 16 16 18 20 20 21 21 21 21 22 23 23 22 22 23 23 21 21 21 20 20 21 23 23 24 23 24 26 26 26 29 29 29 28 28 27 27 26 25 26 28 29 30 29 28 29 29 27 26 25 25 24 24 24 24 24 27 28 28 28 28 28 29 31 31 30 29 29 30
-9 -9 -8 -8 -8 -8 -8 -8 -8 -8 -8 -8 -8 -8 -7 -7 -7 -7 -7 -7 -7 -7 -7 -7 -7 -7 -7 -7 -6 -6 -6 -6 -6 -6 -6 -6 -6 -6 -5 -5 -5 -5 -5 -4 -4 -4 -4 -4 -3 -3 -3 -3 -2 -2 -2 -2 -1 -1 -1 -1 0 0 0 0 0 0 0 0 0 0 0 0 0 0 0 0 1 3 8 10 10 11 14 14 15 17 18 18 20 20 20 17 16 15 13 10 12 13 13 14 14 12 10 8 6 6 7 7 7 8 8 9 9 7 7 6 7 7 7 8 8 10 9 8 8 8 9 10 11 12 11 10 9 9 9 11 12 13 13 14 15 15 16 18 20 22 22 23 24 24 25 27 27 28 28 27 25 23 22 23 23 23 23 25 27 28 28 29 29 30 29 28 29 29 26 25 25 25 24 21 18 17 17 15 13 12 11 11 10 10 10 11 13 16 16 14 13 14 15 14 15 16 16 16 17 19 20 21 22 23 23 23 24 24 24 23 23 24 22 21 21 21 21 21 22 22 22 22 22 24 24 25 25 27 28 28 29 27 26 25 24 25 27 28 29 29 29 28 28 28 27 27 26 25 25 24 23 24 26 28 28 28 28 29 29 31 32 31 29 29 30
-9 -9 -8 -8 -8 -8 -8 -8 -8 -8 -8 -8 -8 -8 -7 -7 -7 -7 -7 -7 -7 -7 -7 -7 -7 -7 -7 -7 -7 -6 -6 -6 -6 -6 -6 -6 -6 -6 -5 -5 -5 -5 -5 -4 -4 -4 -4 -4 -3 -3 -3 -3 -2 -2 -2 -2 -1 -1 -1 0 0 0 0 0 0 0 0 0 0 0 0 0 0 0 0 1 1 2 6 9 11 14 16 16 16 18 19 19 19 20 19 16 14 13 10 9 10 11 12 14 13 12 11 10 8 7 7 7 7 7 7 8 8 7 7 7 8 9 8 8 10 11 10 8 7 7 7 9 9 9 9 8 8 9 9 9 11 12 12 11 12 13 15 17 19 20 20 22 23 22 24 26 28 28 29 28 26 24 23 23 23 23 23 24 26 27 28 28 29 30 30 29 31 33 30 28 28 26 24 20 17 17 16 15 14 13 12 11 11 12 13 13 16 18 17 15 14 15 16 15 16 16 16 17 18 19 20 22 24 24 23 22 23 24 23 22 23 22 21 19 19 21 21 21 21 22 22 21 21 22 23 23 24 25 26 27 27 26 25 25 25 26 27 28 29 29 29 28 28 27 27 27 26 26 25 24 23 23 25 26 27 27 27 27 29 31 32 32 31 31 31
-9 -9 -8 -8 -8 -8 -8 -8 -8 -8 -8 -8 -8 -8 -8 -7 -7 -7 -7 -7 -7 -7 -7 -7 -7 -7 -7 -7 -7 -6 -6 -6 -6 -6 -6 -6 -6 -6 -5 -5 -5 -5 -5 -4 -4 -4 -4 -4 -3 -3 -3 -3 -2 -2 -2 -2 -1 -1 -1 0 0 0 0 0 0 0 0 0 0 0 0 0 0 0 1 1 5 7 8 11 13 14 16 17 16 17 18 18 19 18 18 15 12 11 9 8 8 10 11 12 13 12 11 11 10 9 8 7 7 7 7 7 8 8 7 7 8 8 7 7 10 13 12 9 8 7 8 8 8 8 7 7 8 8 9 9 10 11 11 10 11 11 13 16 18 19 19 21 23 23 24 24 27 28 28 28 27 25 23 23 23 23 23 24 26 27 28 29 29 30 31 32 33 34 32 30 29 26 23 20 17 16 15 14 14 14 13 12 13 15 16 17 18 19 18 17 17 17 18 16 16 16 17 17 18 19 20 22 23 24 23 22 21 21 20 21 21 21 19 18 18 19 20 20 21 22 22 21 21 22 21 21 22 23 23 25 26 26 25 25 26 27 28 29 29 28 28 28 28 28 27 26 25 24 23 24 23 23 24 25 26 27 27 27 28 29 31 33 33 33 32
-9 -9 -8 -8 -8 -8 -8 -8 -8 -8 -8 -8 -8 -8 -8 -8 -7 -7 -7 -7 -7 -7 -7 -7 -7 -7 -7 -7 -7 -7 -6 -6 -6 -6 -6 -6 -6 -6 -5 -5 -5 -5 -5 -4 -4 -4 -4 -4 -3 -3 -3 -3 -2 -2 -2 -1 -1 -1 -1 0 0 0 0 0 0 0 0 0 0 0 0 0 0 5 4 6 8 10 12 13 14 14 15 15 14 14 15 16 16 14 14 14 11 10 9 8 8 9 9 10 11 11 11 11 11 11 10 9 8 7 7 8 9 9 8 7 7 6 7 7 10 13 12 11 9 8 8 8 8 8 8 8 8 8 8 9 10 11 11 10 11 12 12 15 17 18 19 21 22 22 22 23 25 26 26 26 26 24 23 24 25 24 24 25 26 27 29 30 30 30 31 33 34 33 32 30 28 25 23 20 18 15 14 13 14 14 13 13 15 16 17 18 19 19 19 20 21 21 20 18 17 17 17 17 18 19 20 20 21 22 22 21 20 19 18 18 19 19 18 18 18 19 19 20 21 22 22 21 22 22 21 21 22 22 21 23 24 25 25 25 26 26 28 29 28 28 28 28 28 28 27 25 23 22 22 23 23 23 25 26 27 27 28 28 27 28 30 32 34 34 34
-9 -9 -8 -8 -8 -8 -8 -8 -8 -8 -8 -8 -8 -8 -8 -8 -8 -7 -7 -7 -7 -7 -7 -7 -7 -7 -7 -7 -7 -7 -6 -6 -6 -6 -6 -6 -6 -6 -5 -5 -5 -5 -5 -4 -4 -4 -4 -4 -3 -3 -3 -3 -2 -2 -2 -1 -1 -1 -1 0 0 0 0 0 0 0 0 0 0 0 0 0 7 6 8 10 11 11 12 13 14 14 14 13 13 12 12 12 12 10 11 12 11 9 9 9 8 9 9 9 9 10 11 11 12 11 10 9 8 8 8 9 10 9 9 9 8 8 7 7 10 12 11 11 10 8 8 8 8 8 8 8 8 9 9 11 11 11 11 10 11 12 13 15 17 18 19 20 20 20 21 22 24 25 24 25 26 25 24 25 25 24 25 26 27 28 30 31 30 31 31 33 34 33 31 29 28 26 23 21 18 15 13 13 14 14 13 13 15 16 18 19 19 20 21 22 22 22 21 19 18 18 18 18 18 19 19 19 19 19 20 19 19 18 15 16 17 18 19 19 19 20 20 21 21 20 20 20 20 21 22 22 22 21 20 21 23 23 24 25 25 25 26 27 27 27 27 27 27 27 25 23 21 21 22 24 25 26 26 27 28 28 28 28 28 28 29 31 33 34 34
-9 -9 -8 -8 -8 -8 -8 -8 -8 -8 -8 -8 -8 -8 -8 -8 -8 -8 -7 -7 -7 -7 -7 -7 -7 -7 -7 -7 -7 -7 -6 -6 -6 -6 -6 -6 -6 -6 -5 -5 -5 -5 -5 -4 -4 -4 -4 -4 -3 -3 -3 -3 -2 -2 -2 -1 -1 -1 0 0 0 0 0 0 0 0 0 0 0 0 0 5 8 10 12 15 15 12 12 14 14 14 13 13 12 11 10 9 9 8 9 9 9 8 8 8 8 9 9 8 8 9 11 12 11 10 8 8 8 8 8 9 10 9 9 9 10 10 8 8 8 9 10 10 10 8 7 7 7 7 8 8 9 11 13 13 13 13 13 12 12 13 13 14 16 17 18 19 20 20 20 21 23 24 25 27 27 26 25 26 26 24 25 26 27 28 30 30 30 31 32 33 34 33 32 30 27 25 22 19 17 15 13 13 14 14 14 13 13 16 18 18 18 21 24 23 22 21 20 19 18 18 18 18 17 17 18 19 17 17 17 17 16 16 15 15 17 18 19 19 20 20 21 21 20 18 19 19 19 21 22 22 22 21 20 21 22 22 23 25 25 25 25 25 26 26 26 25 26 26 24 22 22 22 23 25 26 26 26 27 28 28 28 28 28 27 28 29 30 32 32
-9 -9 -8 -8 -8 -8 -8 -8 -8 -8 -8 -8 -8 -8 -8 -8 -8 -8 -8 -8 -7 -7 -7 -7 -7 -7 -7 -7 -7 -7 -6 -6 -6 -6 -6 -6 -6 -6 -5 -5 -5 -5 -5 -4 -4 -4 -4 -4 -3 -3 -3 -3 -2 -2 -2 -1 -1 -1 0 0 0 0 0 0 0 0 0 0 0 0 7 6 9 12 13 15 15 12 13 15 15 14 14 13 13 11 9 9 8 8 8 8 8 8 7 7 8 9 10 9 9 9 10 10 9 8 7 7 7 8 8 9 10 8 7 8 10 10 8 7 7 8 10 10 9 8 7 7 6 6 7 7 10 12 14 14 14 14 15 14 14 13 14 14 15 17 18 18 19 20 20 22 23 25 27 28 28 27 26 27 27 26 26 27 28 29 30 30 30 31 32 34 35 34 33 31 25 22 19 18 18 16 13 12 13 13 13 11 11 12 13 14 16 21 26 25 23 21 20 19 18 18 19 18 17 17 18 18 17 16 15 15 16 16 16 16 16 18 19 19 19 20 20 21 20 19 19 19 20 22 22 22 22 22 22 22 22 22 22 24 25 25 24 24 25 25 25 23 23 24 24 24 26 24 25 27 27 26 26 27 28 27 27 28 27 26 26 27 29 30 31
-9 -9 -8 -8 -8 -8 -8 -8 -8 -8 -8 -8 -8 -8 -8 -8 -8 -8 -8 -8 -8 -7 -7 -7 -7 -7 -7 -7 -7 -7 -7 -6 -6 -6 -6 -6 -6 -6 -5 -5 -5 -5 -5 -4 -4 -4 -4 -4 -3 -3 -3 -3 -2 -2 -2 -1 -1 -1 0 0 0 0 0 0 0 0 0 0 0 9 10 8 10 12 13 14 14 13 13 15 15 15 15 14 14 12 9 8 9 8 7 7 7 7 7 7 7 9 10 10 9 9 8 8 9 8 7 8 7 7 8 9 9 8 8 8 9 8 7 6 7 9 10 10 8 8 7 7 6 7 7 8 10 13 14 14 14 14 15 15 15 13 14 14 15 16 17 18 19 20 20 22 24 26 28 29 29 28 27 27 27 26 26 27 29 30 31 31 32 32 33 34 36 35 35 31 25 21 19 18 18 16 14 13 12 12 11 10 10 9 10 11 15 23 25 24 22 21 20 19 17 17 18 18 18 17 17 17 16 15 15 16 18 17 16 14 15 17 18 19 20 20 20 21 20 19 19 20 20 21 21 21 21 22 22 22 22 22 22 23 24 24 24 23 23 24 24 22 21 22 23 26 28 27 27 28 29 28 28 28 28 27 26 27 26 25 25 26 28 30 31
-9 -9 -8 -8 -8 -8 -8 -8 -8 -8 -8 -8 -8 -8 -8 -8 -8 -8 -8 -8 -8 -7 -7 -7 -7 -7 -7 -7 -7 -7 -7 -6 -6 -6 -6 -6 -6 -6 -5 -5 -5 -5 -5 -4 -4 -4 -4 -4 -3 -3 -3 -3 -2 -2 -2 -1 -1 -1 0 0 0 0 0 0 0 0 0 0 10 11 11 11 12 14 14 14 14 15 15 15 15 16 16 15 14 12 10 9 9 8 8 7 7 8 7 7 8 9 9 9 9 9 8 8 9 9 8 9 8 8 8 8 9 8 8 9 9 8 7 7 7 9 9 9 9 9 9 8 7 8 8 9 10 11 12 12 14 15 16 16 15 14 14 15 16 16 17 19 21 22 22 22 24 27 28 28 28 27 26 26 26 25 26 28 30 31 31 31 32 32 32 33 34 35 33 31 25 21 19 19 17 15 15 14 13 11 11 10 11 11 10 11 14 19 21 21 20 18 18 17 17 17 17 18 17 16 16 16 15 15 15 17 18 17 15 13 14 16 17 18 20 20 20 20 20 19 18 19 19 20 20 20 20 21 21 21 21 21 21 22 23 24 23 22 21 22 22 22 21 21 23 26 28 28 28 29 29 28 27 27 27 26 25 25 25 24 24 25 28 30 30
-9 -9 -8 -8 -8 -8 -8 -8 -8 -8 -8 -8 -8 -8 -8 -8 -8 -8 -8 -8 -8 -8 -7 -7 -7 -7 -7 -7 -7 -7 -7 -6 -6 -6 -6 -6 -6 -6 -5 -5 -5 -5 -5 -4 -4 -4 -4 -4 -3 -3 -3 -3 -2 -2 -2 -1 -1 -1 0 0 0 0 0 0 0 0 0 14 11 11 13 14 15 14 14 14 15 16 16 15 15 16 16 14 13 12 11 11 10 9 8 8 8 8 8 8 9 9 9 8 8 8 8 9 9 9 9 9 9 9 8 8 9 8 8 9 9 9 9 8 7 8 8 9 10 11 12 10 9 8 9 9 10 10 10 11 14 15 15 16 17 16 15 15 16 17 18 20 23 24 23 24 26 27 28 28 28 27 25 25 25 25 26 30 32 31 30 30 30 31 32 32 33 34 32 29 25 22 21 19 16 15 15 15 13 12 11 10 10 10 11 11 11 14 14 17 17 16 15 15 15 16 17 17 16 16 16 15 15 15 15 17 18 17 15 14 15 16 17 19 20 20 20 20 19 18 17 17 18 19 20 20 20 20 21 21 21 21 21 22 23 24 23 22 20 21 22 22 21 21 22 25 27 27 28 28 29 27 25 25 26 26 25 25 25 25 25 26 28 28 29
-9 -9 -8 -8 -8 -8 -8 -8 -8 -8 -8 -8 -8 -8 -8 -8 -8 -8 -8 -8 -8 -8 -8 -7 -7 -7 -7 -7 -7 -7 -7 -6 -6 -6 -6 -6 -6 -6 -5 -5 -5 -5 -5 -4 -4 -4 -4 -4 -3 -3 -3 -3 -2 -2 -2 -1 -1 0 0 0 0 0 0 0 0 0 8 9 8 10 13 15 16 15 14 14 15 15 15 15 15 16 16 15 14 13 12 11 11 10 9 8 8 8 8 8 9 9 9 9 8 8 8 9 10 9 9 9 9 9 9 8 9 8 8 8 9 9 8 7 7 8 9 9 11 12 13 11 10 9 9 9 9 9 10 12 14 15 16 17 18 17 14 15 16 17 18 20 23 25 25 26 27 28 28 29 28 27 26 25 25 25 27 30 32 30 29 29 30 30 30 32 33 33 31 28 25 23 23 22 19 16 16 15 12 11 10 8 7 8 10 11 11 11 12 15 15 14 13 13 13 14 15 17 16 15 15 15 15 15 16 17 18 18 17 15 16 18 18 20 22 22 21 19 19 18 17 16 17 18 19 20 20 20 21 21 21 22 22 22 23 24 24 23 22 21 22 22 22 21 21 22 24 26 26 27 28 27 25 25 27 27 25 25 26 26 26 26 27 27 28
-9 -9 -8 -8 -8 -8 -8 -8 -8 -8 -8 -8 -8 -8 -8 -8 -8 -8 -8 -8 -8 -8 -8 -7 -7 -7 -7 -7 -7 -7 -7 -6 -6 -6 -6 -6 -6 -6 -5 -5 -5 -5 -5 -4 -4 -4 -4 -4 -3 -3 -3 -3 -2 -2 -2 -1 -1 0 0 0 0 0 0 0 0 5 6 8 9 10 12 15 17 16 15 16 17 16 16 15 16 17 17 16 16 13 12 11 10 9 9 9 9 9 9 8 8 9 9 8 8 8 8 10 10 9 9 9 8 8 8 8 9 8 8 8 8 9 8 7 7 8 9 9 9 11 12 11 10 9 9 8 8 9 11 13 14 15 16 16 18 17 15 15 16 17 19 21 23 25 26 28 28 28 29 29 29 28 27 26 26 26 28 30 30 29 28 29 29 28 28 29 31 32 30 28 27 26 26 26 22 19 17 15 11 10 10 9 7 9 9 10 11 11 13 15 15 13 12 11 12 12 13 14 14 14 15 16 16 16 17 18 19 19 18 17 18 19 19 21 23 23 21 20 19 19 17 16 16 17 18 19 20 20 20 21 21 22 23 24 24 24 25 25 24 23 22 23 23 22 21 21 23 24 25 26 27 27 25 27 28 28 27 26 26 26 26 27 27 28 28
-9 -9 -8 -8 -8 -8 -8 -8 -8 -8 -8 -8 -8 -8 -8 -8 -8 -8 -8 -8 -8 -8 -8 -7 -7 -7 -7 -7 -7 -7 -7 -6 -6 -6 -6 -6 -6 -6 -5 -5 -5 -5 -5 -4 -4 -4 -4 -4 -3 -3 -3 -3 -2 -2 -1 -1 -1 0 0 0 0 0 0 0 8 7 7 10 12 13 14 16 18 17 17 17 17 17 18 16 16 18 19 19 16 13 12 12 11 9 9 9 9 9 9 9 8 8 8 8 8 8 8 9 9 9 8 8 8 8 8 8 9 8 8 8 8 8 8 8 8 8 8 8 8 10 10 10 9 9 8 8 8 8 10 12 13 15 16 16 16 17 17 16 17 18 20 22 23 25 26 28 28 28 29 29 29 29 28 26 26 26 27 28 28 27 27 28 27 27 26 27 28 30 30 30 30 29 28 27 23 20 17 14 10 10 12 11 10 10 10 10 11 11 12 13 13 12 12 12 12 12 12 13 13 13 14 15 16 17 20 21 20 20 18 18 18 19 20 21 22 22 22 20 20 20 18 17 17 18 19 19 20 20 20 21 21 21 23 25 26 26 26 26 25 23 22 23 24 23 21 20 22 23 23 25 26 26 26 28 29 29 27 27 27 26 26 26 26 27 28
-9 -9 -8 -8 -8 -8 -8 -8 -8 -8 -8 -8 -8 -8 -8 -8 -8 -8 -8 -8 -8 -8 -8 -8 -7 -7 -7 -7 -7 -7 -7 -7 -6 -6 -6 -6 -6 -6 -5 -5 -5 -5 -5 -4 -4 -4 -4 -4 -3 -3 -3 -3 -2 -2 -1 -1 -1 0 0 0 0 0 7 10 10 9 9 13 16 16 15 16 16 17 17 17 17 18 18 17 17 18 19 19 16 14 14 13 11 10 10 10 10 10 9 9 9 9 8 7 8 8 8 8 8 8 8 7 8 8 8 8 8 8 8 7 7 7 8 8 8 7 7 7 8 9 10 10 9 9 8 8 8 8 8 10 12 14 15 15 16 17 17 17 17 19 21 22 24 24 25 27 27 27 28 28 29 29 28 26 25 25 26 27 26 26 26 26 26 26 25 25 26 28 30 31 31 30 28 25 23 20 17 12 10 11 12 12 11 11 10 11 11 11 11 12 12 12 12 12 11 11 11 12 13 13 13 14 16 18 21 22 21 21 20 18 18 19 20 20 20 21 22 21 21 21 20 19 19 19 19 19 19 19 20 22 21 21 22 24 25 26 25 25 25 24 23 24 24 24 22 21 21 22 23 24 25 26 27 29 31 30 28 27 27 28 28 26 25 26 27
-9 -9 -8 -8 -8 -8 -8 -8 -8 -8 -8 -8 -8 -8 -8 -8 -8 -8 -8 -8 -8 -8 -8 -8 -7 -7 -7 -7 -7 -7 -7 -7 -6 -6 -6 -6 -6 -6 -5 -5 -5 -5 -5 -4 -4 -4 -4 -4 -3 -3 -3 -3 -2 -2 -1 -1 -1 0 0 0 0 6 9 10 11 10 12 17 18 15 14 16 17 18 18 19 19 18 19 19 17 17 19 18 16 14 14 13 12 11 10 10 10 10 9 9 9 10 8 8 7 7 8 8 8 8 8 7 8 8 8 7 7 8 8 8 7 7 8 9 8 7 7 7 7 8 9 9 10 9 8 8 8 8 8 9 11 13 14 14 14 16 17 17 18 20 22 23 24 24 25 26 25 25 26 27 27 27 27 26 25 25 25 26 25 24 23 24 24 24 23 23 25 27 29 30 30 29 27 25 22 19 15 12 11 12 13 12 11 11 11 12 14 13 12 11 12 12 13 12 12 12 11 12 13 13 13 13 14 17 19 20 20 21 20 19 18 18 18 19 19 20 21 21 22 21 20 20 21 21 20 19 19 19 21 22 22 21 22 24 25 25 25 25 25 25 24 24 25 24 23 22 22 24 25 25 24 26 30 31 32 31 30 28 29 30 29 27 27 28 28
-9 -9 -8 -8 -8 -8 -8 -8 -8 -8 -8 -8 -8 -8 -8 -8 -8 -8 -8 -8 -8 -8 -8 -8 -8 -7 -7 -7 -7 -7 -7 -7 -6 -6 -6 -6 -6 -6 -5 -5 -5 -5 -5 -4 -4 -4 -4 -4 -3 -3 -3 -3 -2 -2 -1 -1 -1 0 0 0 5 8 11 10 9 10 14 19 19 16 15 18 20 21 22 22 20 20 20 20 19 18 18 17 16 14 14 13 13 12 11 10 10 10 10 10 10 9 8 8 7 7 7 8 8 8 8 7 7 8 8 7 7 7 8 8 7 8 9 8 9 8 8 7 7 7 8 9 10 8 7 8 8 8 9 9 10 12 12 11 12 14 16 18 19 20 22 23 24 25 25 25 24 23 24 24 24 25 25 25 25 25 25 25 24 23 21 20 20 21 21 23 24 26 28 29 29 28 26 22 20 17 13 12 13 13 12 10 10 10 12 14 16 15 13 12 13 13 12 12 12 12 11 12 13 13 13 13 15 16 16 18 19 20 20 19 18 16 16 17 18 19 20 21 22 22 21 21 22 21 20 20 19 19 20 23 23 22 23 24 26 26 27 27 28 27 26 25 25 24 23 23 24 26 27 27 26 28 31 33 33 32 32 32 31 31 31 29 29 29 30
-9 -9 -9 -8 -8 -8 -8 -8 -8 -8 -8 -8 -8 -8 -8 -8 -8 -8 -8 -8 -8 -8 -8 -8 -8 -7 -7 -7 -7 -7 -7 -7 -6 -6 -6 -6 -6 -6 -5 -5 -5 -5 -5 -4 -4 -4 -4 -3 -3 -3 -3 -2 -2 -2 -1 -1 0 0 10 7 6 8 10 9 8 8 12 19 22 21 19 20 21 22 22 21 21 21 23 23 22 21 19 18 16 15 15 14 15 14 12 11 11 11 11 10 10 9 8 8 8 7 7 7 7 7 8 7 7 7 8 7 6 7 8 7 7 8 9 7 7 9 8 8 7 7 8 9 8 8 7 8 8 9 8 8 9 11 11 10 10 12 13 16 19 20 20 23 24 24 24 23 22 23 24 25 24 24 24 24 24 24 24 23 23 22 19 17 18 18 20 23 25 26 28 27 28 26 23 20 19 15 13 13 13 13 12 11 10 11 12 15 16 16 15 15 15 14 11 11 12 12 12 13 13 13 14 14 15 16 16 17 17 17 18 18 17 15 15 16 18 19 19 20 21 22 23 23 22 21 20 20 19 19 20 23 23 23 24 25 26 27 28 29 30 30 29 27 26 24 24 25 26 27 28 28 28 30 33 32 33 33 33 34 34 34 31 30 30 30 31
-9 -9 -9 -8 -8 -8 -8 -8 -8 -8 -8 -8 -8 -8 -8 -8 -8 -8 -8 -8 -8 -8 -8 -8 -8 -7 -7 -7 -7 -7 -7 -7 -6 -6 -6 -6 -6 -6 -5 -5 -5 -5 -5 -4 -4 -4 -4 -3 -3 -3 -3 -2 -2 -2 -1 -1 0 8 8 7 7 8 8 8 8 7 11 15 21 21 20 19 20 21 22 23 22 23 24 25 25 23 20 18 17 16 15 16 16 16 14 12 12 11 12 11 10 9 9 9 8 8 8 7 7 7 7 7 7 7 7 7 7 7 8 8 7 8 9 7 7 8 8 7 7 7 8 8 8 7 8 8 8 8 8 8 9 10 10 10 10 11 13 14 17 18 19 22 24 23 22 22 23 24 25 25 24 24 24 25 24 23 23 22 21 21 19 18 17 18 20 22 23 25 26 26 27 27 23 20 18 16 14 14 13 13 13 12 12 12 14 16 17 18 17 17 16 15 13 13 13 13 13 13 14 14 16 16 15 16 17 17 17 16 18 19 17 15 14 15 18 19 19 20 21 23 24 23 23 22 20 19 19 19 20 22 22 21 22 23 25 27 29 31 32 32 31 30 28 26 26 26 27 28 28 30 31 32 32 33 34 33 34 35 35 35 33 31 30 30 30
-9 -9 -9 -8 -8 -8 -8 -8 -8 -8 -8 -8 -8 -8 -8 -8 -8 -8 -8 -8 -8 -8 -8 -8 -8 -8 -7 -7 -7 -7 -7 -7 -6 -6 -6 -6 -6 -6 -5 -5 -5 -5 -4 -4 -4 -4 -4 -3 -3 -3 -3 -2 -2 -2 -1 -1 0 4 7 8 8 8 8 8 8 10 10 14 18 19 19 18 19 20 21 22 22 22 23 25 26 25 21 19 18 16 16 16 16 16 15 13 13 12 12 11 10 9 9 9 9 9 9 8 8 8 8 8 8 8 7 7 7 7 8 9 8 7 8 8 7 8 8 7 7 8 8 8 8 7 7 7 7 8 8 8 9 9 9 9 10 12 13 14 16 17 18 22 23 21 20 22 24 25 26 25 23 24 26 26 25 24 23 23 21 20 20 19 18 18 20 21 23 24 24 24 25 24 22 19 18 16 15 15 13 13 13 13 13 14 16 17 19 20 20 19 18 17 16 16 15 15 13 13 13 14 17 16 15 16 17 17 18 18 20 19 17 15 14 15 17 18 19 20 22 24 26 25 23 21 19 18 19 19 20 21 21 20 20 22 24 27 30 32 33 31 30 30 28 27 26 26 26 27 28 31 33 33 33 35 35 35 35 35 35 34 33 31 29 28 29
-9 -9 -9 -9 -8 -8 -8 -8 -8 -8 -8 -8 -8 -8 -8 -8 -8 -8 -8 -8 -8 -8 -8 -8 -8 -8 -7 -7 -7 -7 -7 -7 -6 -6 -6 -6 -6 -6 -5 -5 -5 -5 -4 -4 -4 -4 -4 -3 -3 -3 -3 -2 -2 -1 -1 -1 0 4 8 10 9 9 9 9 9 10 11 13 16 17 18 19 18 18 20 20 21 21 22 24 26 25 21 20 18 16 16 17 16 16 15 14 14 14 14 12 11 10 9 9 9 9 8 8 8 8 9 9 9 9 8 6 6 7 8 9 8 6 6 8 7 8 8 8 8 8 8 8 8 8 7 7 7 7 7 8 8 9 9 9 10 11 13 13 14 15 17 19 19 19 20 21 22 24 25 24 23 24 25 26 26 24 23 22 21 20 20 20 19 19 20 21 22 23 22 23 24 23 22 21 19 18 17 16 14 14 14 14 15 15 16 18 19 21 21 21 21 20 18 17 17 16 15 13 13 13 15 15 15 16 17 18 18 19 20 19 16 14 14 15 17 18 20 22 25 27 28 25 23 21 19 18 19 19 21 22 22 20 21 22 24 27 30 32 33 32 30 30 29 27 28 27 25 25 28 31 33 34 35 35 36 36 36 37 36 34 33 31 30 30 29
-9 -9 -9 -9 -9 -8 -8 -8 -8 -8 -8 -8 -8 -8 -8 -8 -8 -8 -8 -8 -8 -8 -8 -8 -8 -8 -7 -7 -7 -7 -7 -7 -6 -6 -6 -6 -6 -6 -5 -5 -5 -5 -4 -4 -4 -4 -4 -3 -3 -3 -3 -2 -2 -1 -1 -1 4 6 10 12 11 10 10 10 8 9 10 12 14 15 17 18 18 18 18 19 21 21 22 23 24 23 21 17 15 14 14 16 16 15 15 15 15 15 15 14 13 11 10 10 10 10 9 8 8 9 9 9 9 9 8 6 6 7 8 9 8 6 6 7 7 7 8 8 8 8 8 8 8 8 8 8 8 7 8 8 8 8 9 9 10 11 13 13 14 15 17 18 18 18 19 20 21 22 24 24 24 24 24 25 25 24 22 21 20 18 19 18 17 18 20 21 20 20 21 21 23 23 23 22 20 19 18 16 15 14 15 16 17 16 16 17 18 20 20 20 20 20 18 16 16 16 14 14 13 13 14 14 14 16 17 17 18 19 19 18 17 16 15 16 17 19 22 26 27 28 28 25 22 21 20 19 19 20 21 22 22 21 22 23 24 27 29 31 32 32 31 30 30 29 28 28 25 25 28 32 34 36 36 36 36 37 37 38 37 36 36 34 33 33 30
-9 -9 -9 -9 -9 -8 -8 -8 -8 -8 -8 -8 -8 -8 -8 -8 -8 -8 -8 -8 -8 -8 -8 -8 -8 -8 -7 -7 -7 -7 -7 -7 -6 -6 -6 -6 -6 -6 -5 -5 -5 -5 -4 -4 -4 -4 -3 -3 -3 -3 -3 -2 -2 -1 -1 -1 6 9 11 13 12 11 12 13 9 8 9 11 13 14 15 14 16 17 18 19 20 22 24 25 24 23 20 16 14 14 14 15 15 14 14 15 15 16 15 15 14 13 12 12 11 10 9 8 8 8 8 8 9 9 9 6 5 7 8 8 8 8 7 7 6 7 7 7 8 8 7 8 8 9 9 9 9 8 8 8 8 8 8 9 9 11 13 13 14 15 15 16 17 18 19 20 21 22 23 24 24 24 24 24 24 22 21 22 20 19 18 16 15 17 19 20 19 18 19 20 21 22 22 21 19 18 17 16 15 16 17 18 18 17 17 17 19 20 19 19 18 18 16 15 14 14 13 13 14 14 14 14 14 16 17 17 18 19 20 20 19 19 19 18 18 19 22 25 26 27 26 24 23 22 21 21 21 21 22 22 22 22 23 23 24 26 28 29 30 31 30 30 30 28 28 28 28 28 30 32 34 36 37 37 37 38 38 37 37 37 37 36 34 33 32
-9 -9 -9 -9 -9 -9 -9 -9 -9 -9 -9 -9 -9 -9 -9 -9 -9 -9 -9 -9 -9 -8 -8 -8 -8 -8 -8 -7 -7 -7 -7 -7 -7 -6 -6 -6 -6 -6 -5 -5 -5 -5 -4 -4 -4 -4 -3 -3 -3 -3 -2 -2 -2 -1 -1 0 10 11 10 11 13 13 15 16 14 11 10 11 12 13 13 14 16 18 18 19 20 21 25 26 25 23 21 19 17 17 16 15 14 14 14 16 17 17 16 16 15 14 13 12 12 11 9 9 8 8 8 9 9 9 9 7 7 9 10 10 10 10 9 7 7 7 7 8 7 7 7 7 8 8 8 9 9 8 8 8 8 9 9 9 9 10 11 12 13 13 13 14 15 17 19 20 20 21 22 23 23 23 23 23 22 20 21 21 21 19 17 15 15 17 19 18 17 16 17 18 20 21 21 20 18 18 17 16 16 16 18 19 19 19 19 20 20 20 20 19 18 18 16 14 14 13 12 13 13 14 14 13 14 15 17 18 18 19 22 22 22 21 21 20 20 20 22 23 23 25 25 25 24 23 23 23 23 22 22 22 22 22 23 23 24 26 27 27 28 30 30 30 30 30 29 30 32 32 32 32 34 35 36 37 38 39 37 36 36 38 37 36 35 34 32
-9 -9 -9 -9 -9 -9 -9 -9 -9 -9 -9 -9 -9 -9 -9 -9 -9 -9 -9 -9 -9 -8 -8 -8 -8 -8 -8 -7 -7 -7 -7 -7 -7 -6 -6 -6 -6 -6 -5 -5 -5 -5 -4 -4 -4 -4 -3 -3 -3 -3 -2 -2 -2 -1 11 8 11 11 10 11 13 16 17 17 16 14 13 11 12 13 13 14 18 21 20 20 22 24 26 26 24 22 21 19 19 17 16 16 16 16 17 18 19 18 18 18 17 16 14 13 14 13 11 9 9 9 9 9 9 9 9 9 9 12 12 11 11 11 9 8 8 7 8 8 7 5 6 7 7 7 7 8 8 7 7 8 7 8 9 9 9 9 10 10 11 11 10 12 13 15 17 18 18 19 21 21 22 22 21 21 20 19 20 20 19 18 16 14 16 17 17 17 16 15 16 17 18 19 19 19 19 18 18 17 17 17 18 20 20 20 21 21 21 21 22 21 21 20 17 15 14 12 12 13 15 15 14 14 14 16 17 19 20 21 23 23 21 21 21 21 21 21 22 22 23 24 25 24 24 24 24 24 23 22 22 22 23 23 22 23 25 26 27 28 29 30 30 30 31 32 32 33 32 32 32 33 34 36 36 37 38 38 37 36 36 37 37 36 35 34 33
-9 -9 -9 -9 -9 -9 -9 -9 -9 -9 -9 -9 -9 -9 -9 -9 -9 -9 -9 -9 -9 -8 -8 -8 -8 -8 -8 -7 -7 -7 -7 -7 -7 -6 -6 -6 -6 -6 -5 -5 -5 -5 -4 -4 -4 -4 -3 -3 -3 -3 -2 1 5 10 10 7 7 12 11 13 17 17 17 16 16 15 14 13 12 12 13 14 20 24 24 24 26 27 27 25 22 18 17 17 17 15 16 17 18 19 20 20 20 20 20 19 18 17 16 15 15 15 13 10 9 9 9 9 9 10 10 10 11 14 14 12 12 11 10 10 9 8 8 8 6 5 5 6 8 8 8 9 9 8 8 7 7 7 8 8 8 9 9 10 10 10 9 11 13 14 16 17 17 18 19 20 20 20 19 18 18 18 18 19 18 16 14 15 17 17 17 16 16 15 15 16 16 18 18 19 20 20 19 18 19 19 20 20 20 20 20 21 22 22 23 23 23 21 19 16 13 12 13 15 17 16 15 15 16 17 19 21 24 24 24 22 20 21 21 20 21 21 22 22 23 24 24 25 25 25 25 24 23 23 23 23 24 23 23 23 25 27 29 29 30 31 31 31 32 34 34 33 32 31 32 32 34 35 36 36 37 37 37 36 37 37 37 36 35 34 32
-9 -9 -9 -9 -9 -9 -9 -9 -9 -9 -9 -9 -9 -9 -9 -9 -9 -9 -9 -9 -9 -9 -8 -8 -8 -8 -8 -7 -7 -7 -7 -7 -7 -6 -6 -6 -6 -6 -5 -5 -5 -5 -4 -4 -4 -4 -3 -3 -3 5 4 4 9 12 10 8 8 13 13 17 19 18 18 17 16 15 13 12 12 12 13 18 24 28 28 28 29 29 27 24 20 16 14 16 16 15 16 18 19 20 20 21 20 20 21 20 19 17 17 17 16 15 14 11 10 9 9 10 10 11 11 11 11 16 18 17 16 14 11 11 10 8 7 7 6 5 6 7 8 9 9 9 10 10 9 8 8 8 8 7 8 9 9 10 10 11 10 10 12 14 15 15 15 16 17 18 18 18 17 16 16 15 16 17 16 15 14 15 16 16 16 16 16 15 14 14 16 18 19 20 22 22 20 19 21 22 21 21 21 20 20 21 22 22 22 22 21 20 19 15 13 12 12 14 16 16 14 16 17 18 20 24 25 25 24 22 21 21 20 20 19 21 22 22 23 24 24 25 26 26 26 26 25 24 24 24 25 25 25 25 26 27 29 30 30 31 32 33 34 34 33 32 32 31 31 31 32 34 35 36 36 37 37 37 37 38 37 37 36 34 32
-9 -9 -9 -9 -9 -9 -9 -9 -9 -9 -9 -9 -9 -9 -9 -9 -9 -9 -9 -9 -9 -9 -8 -8 -8 -8 -8 -7 -7 -7 -7 -7 -7 6 8 8 6 7 -5 -5 -5 -4 -4 -4 -4 2 1 4 6 8 10 9 9 11 12 10 11 15 18 21 21 19 18 16 14 14 13 12 11 12 16 23 28 32 32 30 30 29 28 26 24 19 16 16 16 17 19 19 20 20 20 20 20 21 22 21 19 17 18 19 17 15 14 13 12 11 10 10 11 12 13 13 15 19 21 21 18 14 12 11 9 7 6 6 6 6 6 6 7 8 9 10 11 10 9 8 8 8 9 9 8 9 9 9 9 10 11 12 12 12 12 12 13 15 16 16 16 17 17 15 13 12 13 15 15 16 14 13 14 14 14 15 15 15 14 14 17 20 19 20 22 22 20 20 22 22 21 20 21 20 20 21 21 21 21 20 19 19 18 17 14 13 13 13 15 14 14 16 18 19 21 24 25 25 24 24 23 21 21 21 21 21 23 23 24 24 24 26 26 27 27 27 26 25 25 26 26 26 27 26 26 28 30 30 30 31 33 34 35 34 33 33 33 33 32 30 32 33 34 34 35 36 38 38 38 38 38 37 36 35 35
-9 -9 -9 -9 -9 -9 -9 -9 -9 -9 -9 -9 -9 -9 -9 -9 -9 -9 -9 -9 -9 -9 -8 -8 -8 -8 -8 -8 -7 -7 5 5 3 3 7 8 8 11 11 7 2 2 3 3 3 5 7 7 7 9 11 11 12 15 17 19 18 19 22 25 23 20 17 15 14 15 14 12 11 13 18 24 29 33 34 32 31 31 30 31 31 26 22 19 19 22 22 19 20 20 20 20 21 22 22 20 18 18 20 20 18 16 15 14 13 12 11 10 11 13 15 17 19 21 24 21 16 14 12 10 8 7 6 5 5 5 6 6 6 8 9 9 9 9 7 7 8 9 10 9 9 8 8 9 9 10 10 11 11 10 10 10 11 13 14 14 14 15 15 14 12 12 12 13 14 15 14 13 12 12 12 13 13 14 14 15 18 19 19 20 21 20 19 20 21 23 22 20 19 19 19 20 21 21 20 19 18 18 19 19 18 16 15 15 14 13 13 16 18 18 20 22 24 24 24 24 24 24 23 23 23 23 24 25 25 25 26 26 27 27 27 27 26 25 25 26 26 27 29 29 29 30 31 32 32 33 35 36 35 34 34 34 34 33 32 31 30 31 33 34 35 36 36 37 37 38 38 37 37 37 37
-9 -9 -9 -9 -9 -9 -9 -9 -9 -9 -9 -9 -9 -9 -9 -9 -9 -9 -9 -9 -9 -9 -9 -8 -8 -8 -8 -8 4 4 6 6 4 2 5 8 9 9 8 4 3 2 2 4 3 6 9 8 8 9 11 13 14 20 24 26 23 23 25 26 24 20 17 15 15 16 15 13 13 15 19 25 29 33 34 33 32 31 32 32 33 31 29 26 24 25 24 21 21 21 21 21 22 22 21 20 20 21 22 21 20 18 16 14 13 12 12 12 13 14 16 18 19 21 22 21 17 14 11 9 8 7 6 4 4 5 6 6 6 7 8 8 8 8 7 7 8 9 8 8 8 7 8 8 8 8 9 9 9 11 10 10 10 12 12 12 12 13 13 13 12 11 11 12 12 13 12 11 12 11 11 11 12 14 15 17 18 20 20 20 20 19 18 19 20 21 21 20 19 18 19 21 20 20 20 19 18 19 20 20 20 18 16 15 14 13 13 15 18 18 18 20 21 23 24 24 25 24 24 23 23 24 25 25 25 25 26 26 27 27 26 26 25 25 25 26 27 28 30 31 30 32 32 33 33 33 34 36 35 34 34 34 32 32 32 31 29 29 32 34 36 36 35 36 37 38 37 36 35 36 36
-9 -9 -9 -9 -9 -9 -9 -9 -9 -9 -9 -9 -9 -9 -9 -9 -9 -9 -9 -9 -9 -9 -9 -8 -8 -8 -8 5 6 5 5 5 4 -6 -6 -6 -6 -5 3 2 1 1 1 2 4 6 9 10 10 10 11 14 16 22 27 28 27 25 25 24 23 20 18 16 16 17 16 14 13 14 19 24 30 34 34 33 32 32 33 33 34 33 31 30 27 27 26 25 25 25 24 22 22 22 22 22 22 22 22 21 21 19 17 14 12 12 12 12 13 14 16 18 19 20 20 19 17 13 10 9 8 8 6 4 5 6 7 7 6 6 7 7 7 8 7 7 6 6 6 7 8 8 8 8 8 8 8 8 8 10 10 9 10 11 11 11 11 11 12 11 11 11 10 10 10 11 11 10 11 11 11 11 12 14 16 16 17 19 20 19 19 19 18 17 18 18 19 20 19 19 20 21 22 20 20 21 20 20 20 21 21 18 16 15 14 13 13 15 18 18 17 18 19 22 24 25 25 25 24 23 23 24 25 24 24 24 26 27 27 27 26 24 25 26 26 26 27 28 30 32 32 33 33 33 33 32 33 35 35 34 33 32 31 32 31 30 29 30 31 34 37 37 36 36 36 37 36 35 35 35 35
-9 -9 -9 -9 -9 -9 -9 -9 -9 -9 -9 -9 -9 -9 -9 -9 -9 -9 -9 -9 -9 -9 -9 -8 -8 2 3 4 5 5 -7 -7 -7 -6 -6 -6 -6 -5 -5 -5 -5 -4 1 4 7 7 8 9 10 10 11 15 19 24 26 26 25 25 25 23 21 21 20 18 17 17 15 13 12 12 18 24 31 34 33 33 32 32 34 34 34 33 32 30 28 28 29 31 30 28 27 25 23 23 23 23 22 21 21 21 20 19 16 14 12 11 11 12 12 13 16 18 19 19 18 17 15 13 10 9 8 8 7 6 6 7 7 7 6 6 6 6 7 8 8 7 6 5 5 6 7 8 8 9 8 8 8 8 7 8 8 9 10 10 10 9 9 9 10 10 10 10 9 9 10 10 10 9 11 11 12 12 13 14 15 16 17 18 18 18 18 18 17 16 16 17 18 19 19 19 20 22 22 22 22 21 21 21 21 21 20 18 16 15 15 14 15 17 18 19 17 17 19 22 24 25 25 26 25 24 24 25 25 24 24 25 26 27 28 28 26 24 24 26 26 26 26 27 29 32 33 33 33 33 32 32 32 32 33 33 31 31 31 29 30 30 30 30 31 34 36 36 35 35 35 36 36 35 34 34 33
-9 -9 -9 -9 -9 -9 -9 -9 -9 -9 -9 -9 -9 -9 -9 -9 -9 -9 -9 -9 -9 -9 -9 -8 1 3 3 3 -7 -7 -7 -7 -7 -6 -6 -6 -6 -5 -5 -5 -5 -4 -4 7 8 8 7 7 10 11 12 16 20 22 23 23 23 24 25 23 21 22 21 20 18 17 16 14 13 14 18 24 29 32 33 34 33 34 34 35 34 34 33 32 30 29 32 34 33 31 30 29 27 25 24 23 21 20 20 20 19 17 15 13 12 10 11 12 13 14 16 18 19 18 18 16 15 12 9 8 7 7 8 7 7 6 5 5 6 6 5 5 6 7 7 8 7 5 6 7 7 7 7 7 7 8 8 8 7 7 8 8 9 9 8 8 8 8 8 9 9 10 9 10 11 10 9 10 12 14 14 13 13 13 14 15 17 17 17 16 16 16 16 16 16 16 17 18 18 18 18 20 20 21 22 22 22 22 22 21 20 19 17 16 16 17 18 18 19 19 18 18 20 22 24 25 25 26 26 26 25 26 25 24 24 25 27 28 28 28 26 25 25 26 27 27 27 28 30 32 33 33 33 32 31 31 31 31 31 30 29 29 29 28 28 29 30 31 31 34 35 34 35 35 34 34 34 33 33 32 31
-9 -9 -9 -9 -9 -9 -9 -9 -9 -9 -9 -9 -9 -9 -9 -9 -9 -9 -9 -9 -9 -9 -9 2 3 4 4 -8 -7 -7 -7 -7 -7 -6 -6 -6 -6 -5 -5 -5 -5 -4 -4 5 6 7 6 9 12 13 14 18 22 22 21 22 22 23 23 22 21 21 21 20 18 16 15 16 16 17 18 20 26 30 33 34 35 35 35 34 35 35 35 34 34 35 36 37 36 33 31 31 28 27 25 23 20 19 20 20 19 18 17 15 13 11 11 12 14 15 17 18 18 17 17 16 14 12 8 8 7 7 7 7 6 6 5 5 6 6 6 5 6 7 8 9 7 5 6 7 7 5 5 6 7 8 9 8 7 6 7 8 8 8 8 7 8 8 8 9 9 11 12 13 13 12 11 13 17 18 17 15 12 14 15 15 16 18 17 16 15 16 16 16 16 15 16 17 16 16 16 17 18 19 20 21 21 22 22 21 20 19 18 18 17 18 19 19 20 20 18 18 19 20 22 24 25 26 27 27 26 26 25 24 24 26 27 28 28 28 28 27 26 27 28 29 29 30 31 32 33 33 33 32 31 30 30 30 29 28 27 26 27 27 27 28 28 29 31 31 33 34 34 36 34 33 31 31 31 30 30
-10 -9 -9 -9 -9 -9 -9 -9 -9 -9 -9 -9 -9 -9 -9 -9 -9 -9 -9 -9 -9 -9 -9 -8 3 -8 -8 -8 -7 -7 -7 -7 -7 -6 -6 -6 -6 -5 -5 -5 -5 -4 -4 -4 -4 4 6 8 11 12 15 20 23 23 22 22 22 22 22 20 20 20 20 20 18 15 15 16 17 17 17 18 21 27 31 33 34 34 34 34 35 36 36 36 38 39 41 40 39 38 35 32 29 26 25 23 20 19 20 20 20 20 19 17 16 14 13 13 14 15 17 17 17 16 15 14 13 11 10 9 9 8 8 7 7 7 6 5 7 7 7 6 6 7 8 9 7 6 6 7 6 5 5 6 7 9 9 8 6 6 7 7 7 8 8 8 8 8 8 9 10 13 15 16 15 14 15 18 20 19 18 15 15 16 16 15 15 17 18 17 15 15 16 16 16 16 16 16 16 16 16 17 17 17 18 19 20 21 21 21 21 20 19 18 18 19 20 20 21 21 19 18 19 21 22 23 26 28 28 28 28 28 26 25 25 27 28 29 28 28 29 28 27 28 29 29 30 31 31 32 33 33 32 31 29 29 29 28 28 26 25 25 26 27 27 27 27 28 28 28 29 30 33 33 32 30 28 29 29 30 30
-10 -10 -9 -9 -9 -9 -9 -9 -9 -9 -9 -9 -9 -9 -9 -9 -9 -9 -9 -9 -9 -9 -9 -8 -8 -8 -8 -8 -7 -7 -7 -7 -7 -6 -6 -6 -6 -5 -5 -5 -5 -4 -4 -4 -4 -3 3 6 10 14 16 21 24 24 22 21 22 22 21 20 18 18 18 18 17 15 15 17 18 17 16 16 17 22 25 29 30 31 32 34 36 37 38 40 41 41 43 44 43 41 39 34 29 26 24 22 21 21 21 20 20 21 20 18 18 16 16 15 15 15 17 18 18 16 14 14 13 12 11 10 9 9 8 7 7 7 5 6 6 7 7 7 7 7 8 8 7 6 5 5 5 4 5 5 7 9 8 7 6 6 7 6 6 8 9 8 9 9 9 10 12 16 17 17 16 16 17 19 20 19 18 17 17 17 15 14 15 17 18 17 15 15 15 15 16 16 16 16 17 17 18 17 17 16 17 18 18 19 20 22 21 20 19 18 19 21 22 22 22 22 21 20 22 23 24 24 26 28 29 30 30 29 26 26 27 27 31 33 30 29 29 28 29 29 30 31 31 31 31 31 32 31 30 28 27 28 28 28 27 26 24 24 25 26 26 26 27 27 27 27 28 30 31 31 29 26 26 26 27 29 30
-10 -10 -10 -9 -9 -9 -9 -9 -9 -9 -9 -9 -9 -9 -9 -9 -9 -9 -9 -9 -9 -9 -9 -8 -8 -8 -8 -8 -7 -7 -7 -7 -7 -6 -6 -6 -6 -5 -5 -5 -5 -4 -4 -4 -4 -3 3 5 11 16 19 22 26 26 24 22 22 22 21 20 18 18 18 18 17 16 16 19 22 20 17 16 17 19 21 25 27 28 31 34 36 38 40 43 43 43 43 44 43 42 41 37 31 27 26 24 23 24 23 21 20 21 20 19 20 19 17 15 15 16 17 19 19 16 15 14 13 13 12 11 10 9 8 7 7 6 5 6 6 5 6 6 6 6 7 7 6 6 5 4 4 4 5 6 8 9 8 7 6 7 6 6 7 8 9 10 11 11 12 13 14 16 18 18 16 16 17 18 19 20 19 18 18 17 15 15 16 17 17 16 15 14 14 15 17 17 17 17 18 19 18 17 15 14 16 17 17 17 19 20 20 19 19 20 21 22 23 22 22 22 23 23 25 26 26 25 26 28 30 31 31 28 26 28 29 30 34 34 33 31 31 30 31 31 32 33 32 32 32 31 31 29 28 27 27 28 28 27 26 25 23 22 23 25 25 25 25 26 27 28 30 31 31 29 26 24 24 25 26 29 30
-10 -10 -10 -10 -10 -9 -9 -9 -9 -9 -9 -9 -9 -9 -9 -9 -9 -9 -9 -9 -9 -9 -9 -8 -8 -8 -8 -8 -7 -7 -7 -7 -7 -6 -6 -6 -6 -5 -5 -5 -5 -4 -4 -4 -4 2 6 8 12 17 20 24 28 29 26 25 24 22 21 20 19 18 18 18 17 16 18 21 23 22 20 20 19 18 18 21 24 25 30 34 36 38 39 41 42 42 43 43 43 42 43 38 32 30 30 28 24 26 27 24 21 19 19 20 21 20 17 16 16 17 18 19 18 16 15 15 14 13 13 12 10 9 8 8 7 6 6 6 6 5 5 5 6 6 6 7 6 6 6 5 3 5 6 7 9 9 8 7 6 6 6 7 7 7 7 9 10 11 12 13 15 16 18 18 17 17 18 18 20 21 20 19 18 18 17 17 18 17 16 15 15 15 15 16 17 18 18 18 19 19 18 16 15 15 16 17 17 17 18 19 19 18 20 22 22 23 23 23 22 23 24 24 25 26 27 26 27 29 30 31 30 28 28 30 32 35 37 36 36 36 35 33 33 33 34 33 32 32 32 31 30 29 27 27 26 25 26 26 25 23 21 21 22 23 23 24 25 25 26 29 31 31 30 28 26 24 22 23 25 27 29
-10 -10 -10 -10 -10 -10 -9 -9 -9 -9 -9 -9 -9 -9 -9 -9 -9 -9 -9 -9 -9 -9 -9 -8 -8 -8 -8 -8 -7 -7 -7 -7 -7 -6 -6 -6 -6 -5 -5 -5 -5 -4 -4 -4 1 2 9 11 15 18 22 28 31 30 29 27 26 23 22 20 19 18 18 18 17 17 19 21 22 23 23 22 21 18 17 18 20 23 27 30 33 35 36 38 40 41 43 44 42 43 43 40 37 34 32 29 25 27 28 26 22 18 19 21 21 19 17 16 17 18 19 19 17 15 15 16 15 14 14 13 11 10 9 8 7 6 6 6 6 5 5 6 7 7 7 7 6 6 6 5 4 5 7 7 7 8 7 6 6 6 7 7 7 7 7 8 8 9 10 11 13 15 17 18 18 19 19 19 21 22 23 21 19 19 19 19 19 17 15 15 15 16 16 17 17 18 18 19 19 19 18 17 16 16 17 17 17 17 18 18 18 18 20 22 23 23 23 23 23 24 24 24 24 25 27 28 29 30 31 32 31 30 31 33 34 36 40 39 38 37 36 34 34 34 33 32 32 32 31 30 29 28 26 26 25 24 24 24 23 22 20 20 21 22 22 23 23 22 25 28 29 28 28 27 27 24 21 20 21 23 24
-10 -10 -10 -10 -10 -10 -10 -10 -9 -9 -9 -9 -9 -9 -9 -9 -9 -9 -9 -9 -9 -9 -9 -8 -8 -8 -8 -8 -7 -7 -7 -7 -7 -6 -6 -6 -6 -5 -5 -5 -5 -4 -4 1 1 5 11 16 18 21 25 31 34 32 30 29 27 25 23 21 19 18 17 18 18 18 20 20 23 26 26 25 24 21 18 18 19 22 25 27 28 31 34 37 38 40 42 43 42 44 44 44 41 37 33 29 26 26 27 25 22 20 21 21 20 19 18 17 18 19 20 20 18 16 16 16 15 14 14 13 12 11 9 8 7 7 7 7 6 6 6 7 7 8 7 6 6 5 5 5 5 5 7 7 6 6 6 6 5 6 7 7 7 7 7 7 8 8 9 8 10 13 16 17 19 20 20 19 21 23 24 23 20 19 19 19 18 17 16 16 16 16 16 17 17 18 18 19 20 20 18 16 16 16 17 17 17 17 17 18 18 19 21 22 23 24 23 23 24 25 25 25 24 24 27 28 29 29 30 32 32 31 33 34 35 38 40 39 37 36 34 34 34 34 33 32 31 31 31 29 29 28 26 25 24 23 22 22 23 21 20 21 21 22 22 23 22 21 23 25 25 25 26 26 26 23 20 19 20 22 23
-10 -10 -10 -10 -10 -10 -10 -10 -10 -9 -9 -9 -9 -9 -9 -9 -9 -9 -9 -9 -9 -9 -9 -8 -8 -8 -8 -8 -7 -7 -7 -7 -7 -6 -6 -6 -6 -5 -5 -5 -5 -4 -4 3 6 9 14 17 19 22 27 32 35 33 30 28 27 26 24 22 20 19 18 18 18 19 20 23 26 29 30 29 29 26 22 19 19 21 23 25 25 26 29 31 33 36 38 40 41 44 44 43 43 37 32 28 25 24 24 24 21 20 22 22 21 20 19 19 20 20 20 20 18 17 15 15 15 14 13 12 11 10 9 9 8 8 8 8 7 6 6 7 7 7 7 6 6 6 5 5 6 6 7 6 6 6 5 4 4 5 7 7 7 6 7 7 7 7 7 7 8 12 15 18 20 22 21 20 21 24 25 23 20 20 20 19 18 17 17 16 15 15 16 17 17 17 18 18 20 19 17 16 16 17 18 17 16 17 18 19 20 21 22 23 24 25 24 23 24 25 25 24 23 22 24 26 26 27 28 30 30 29 32 34 36 38 38 37 36 34 33 32 33 33 33 32 31 30 30 30 29 27 26 24 23 23 23 22 21 21 20 21 21 21 22 22 21 21 22 24 24 24 25 25 24 21 18 18 21 22 22
-10 -10 -10 -10 -10 -10 -10 -10 -10 -10 -9 -9 -9 -9 -9 -9 -9 -9 -9 -9 -9 -9 -9 -8 -8 -8 -8 -8 -7 -7 -7 -7 -7 -6 -6 -6 -6 -5 -5 -5 -5 -4 4 7 9 11 15 20 23 25 28 31 33 31 30 28 27 26 24 22 22 21 20 18 19 20 21 24 26 29 32 32 32 30 26 23 22 22 23 24 23 24 26 28 29 31 32 34 38 40 40 42 41 34 30 26 25 24 24 25 24 22 22 22 21 21 21 20 21 20 20 19 18 17 15 14 14 13 12 11 10 8 8 9 8 8 8 8 7 6 6 7 7 7 6 6 7 6 6 5 6 6 6 6 6 5 4 4 4 4 6 7 7 6 6 6 6 7 8 7 8 11 14 17 21 23 23 21 22 24 24 22 21 21 23 22 20 19 18 17 16 15 16 17 16 16 17 18 19 18 17 16 17 19 19 18 17 16 18 20 21 23 23 24 25 25 24 22 22 24 24 24 23 22 23 25 26 25 27 29 28 29 32 34 36 37 36 35 33 32 31 30 30 30 30 30 29 28 28 28 27 26 25 24 23 23 22 22 21 20 21 21 20 20 21 21 21 21 21 22 22 23 23 23 21 19 17 18 21 22 22
-10 -10 -10 -10 -10 -10 -10 -10 -10 -10 -10 -9 -9 -9 -9 -9 -9 -9 -9 -9 -9 -9 -9 -8 -8 -8 -8 -8 -7 -7 -7 -7 -7 -6 -6 -6 -6 -5 -5 -5 -5 -4 8 10 11 13 18 24 29 31 31 30 30 28 27 27 26 26 24 22 22 23 24 21 20 20 22 24 25 28 33 33 35 34 32 28 27 25 23 23 22 23 25 26 26 28 29 31 32 34 35 39 37 32 28 26 25 25 26 28 28 25 22 21 21 21 22 22 21 21 20 19 17 17 15 14 14 12 11 10 9 8 8 8 9 8 8 8 7 6 7 7 7 7 6 6 7 7 7 6 5 6 6 5 5 5 6 6 5 4 5 7 7 7 6 6 6 6 7 8 9 11 14 17 20 23 23 21 22 23 24 23 22 22 23 23 22 21 20 18 16 16 16 16 16 16 17 17 18 18 17 17 18 19 20 19 18 17 18 20 22 22 23 25 25 25 23 21 21 23 24 24 24 23 24 26 26 25 26 28 29 30 34 35 35 35 34 32 32 32 31 30 29 28 28 28 27 26 27 26 25 25 25 24 23 22 22 21 20 19 20 19 19 19 19 20 21 21 21 20 20 21 22 21 20 19 19 20 21 22 22
-10 -10 -10 -10 -10 -10 -10 -10 -10 -10 -10 -10 -9 -9 -9 -9 -9 -9 -9 -9 -9 -9 -9 -8 -8 -8 -8 -8 -7 -7 -7 -7 -7 -6 -6 -6 -6 -5 -5 -5 -5 6 10 13 16 21 26 29 33 33 32 30 28 26 25 26 25 24 23 24 24 26 28 24 21 21 22 23 24 29 33 35 37 36 35 32 30 26 24 23 22 22 23 22 23 25 26 27 29 31 31 34 33 31 27 25 26 26 28 29 28 27 24 22 22 22 22 22 22 22 21 19 18 16 14 13 12 11 10 9 9 8 8 9 9 8 7 7 7 6 6 8 8 7 7 7 7 7 7 7 6 5 5 5 5 6 8 8 6 5 5 6 7 6 6 6 5 4 6 8 9 11 14 17 20 22 22 22 22 23 24 24 24 23 22 22 22 21 20 18 16 16 16 16 16 16 16 17 18 19 19 18 18 18 19 20 19 18 19 21 23 23 24 25 25 24 23 22 22 23 23 23 24 24 24 26 26 24 25 28 29 31 32 32 32 31 31 31 31 32 31 28 27 27 27 26 26 25 25 25 24 25 24 23 23 22 21 21 20 19 18 17 17 17 17 19 20 20 19 19 19 19 20 20 20 20 20 20 21 21 20
-10 -10 -10 -10 -10 -10 -10 -10 -10 -10 -10 -10 -9 -9 -9 -9 -9 -9 -9 -9 -9 -9 -9 -8 -8 -8 -8 -8 -7 -7 -7 -7 -7 -6 -6 -6 -6 -5 -5 -5 3 6 11 16 22 30 32 33 34 33 31 28 28 26 24 25 24 23 24 27 30 31 30 28 24 22 22 21 23 29 33 36 35 37 37 34 30 28 26 24 22 22 21 20 20 23 24 25 27 29 30 31 31 29 25 24 25 26 29 30 30 29 26 23 23 22 22 21 20 20 20 19 18 16 14 13 12 11 10 9 9 9 8 9 9 8 7 7 6 5 6 8 8 7 6 7 7 8 7 7 7 6 6 7 5 5 7 7 6 5 6 6 6 6 6 6 5 3 4 6 9 11 13 15 18 20 22 22 23 24 24 24 24 23 22 21 20 19 19 18 17 16 16 16 16 16 16 17 18 20 20 19 19 19 20 20 19 19 20 22 24 24 24 23 23 23 24 24 24 23 23 23 23 24 25 26 26 25 26 28 30 30 28 29 29 30 30 29 29 29 27 25 24 26 26 25 24 24 24 23 23 23 23 22 21 22 21 20 19 18 16 15 15 16 17 18 19 19 19 19 18 18 19 20 20 21 20 19 19 18 18
-10 -10 -10 -10 -10 -10 -10 -10 -10 -10 -10 -10 -10 -9 -9 -9 -9 -9 -9 -9 -9 -9 -9 -8 -8 -8 -8 -8 -7 -7 -7 -7 -7 -6 -6 -6 -6 -5 -5 -5 7 12 17 22 28 33 34 34 34 33 30 28 27 26 24 25 24 23 26 30 34 33 33 30 26 23 22 23 24 27 31 33 35 38 39 36 32 29 27 25 23 22 21 20 20 23 24 24 27 28 30 30 29 27 25 23 23 26 29 32 32 30 26 24 23 22 22 21 19 19 18 17 16 16 14 13 13 12 11 9 9 9 9 8 8 8 8 8 7 6 7 8 8 7 6 7 8 8 8 8 7 7 8 8 6 4 5 5 5 6 6 5 5 6 6 6 6 4 3 4 8 11 12 14 16 19 21 23 24 24 24 23 22 22 22 20 19 18 18 17 16 16 16 17 17 17 16 16 18 19 20 21 21 22 22 21 20 20 21 22 23 23 22 22 21 22 23 24 24 24 23 23 23 25 26 27 27 27 27 29 30 29 28 28 29 30 30 29 28 27 25 23 22 23 25 24 23 23 23 22 21 20 20 18 18 20 20 19 18 17 16 16 15 15 17 18 19 18 18 19 18 18 18 18 18 19 19 17 16 17 17
-10 -10 -10 -10 -10 -10 -10 -10 -10 -10 -10 -10 -10 -10 -9 -9 -9 -9 -9 -9 -9 -9 -9 -8 -8 -8 -8 -8 -7 -7 -7 -7 -7 -6 -6 -6 -6 -6 -5 5 11 18 26 30 33 36 36 34 33 32 30 28 26 26 27 27 27 27 31 35 37 36 34 31 27 25 25 24 26 28 31 32 36 42 40 37 34 33 31 26 23 22 21 19 20 23 24 23 26 28 29 30 29 27 24 23 23 25 28 31 32 29 26 23 23 22 22 21 20 19 17 16 16 15 14 14 13 12 10 9 9 9 9 8 8 9 9 8 7 7 7 8 8 7 7 7 8 8 8 7 7 7 7 8 6 5 4 4 4 6 6 5 5 6 7 7 7 6 5 5 8 11 11 14 16 17 19 22 24 24 23 21 20 19 19 18 17 17 17 16 15 15 15 17 18 18 16 15 17 19 21 22 23 23 23 23 23 23 22 22 22 22 22 22 22 23 23 23 24 24 24 24 24 25 27 28 28 27 28 28 28 27 27 28 28 31 31 30 28 26 25 23 21 22 23 23 22 22 22 21 18 17 17 15 16 18 18 16 16 16 15 15 14 15 17 18 17 17 17 17 17 17 18 18 17 17 17 15 16 16 16
-10 -10 -10 -10 -10 -10 -10 -10 -10 -10 -10 -10 -10 -10 -10 -9 -9 -9 -9 -9 -9 -9 -9 -9 -8 -8 -8 -8 -8 -7 -7 -7 -7 -7 -6 -6 -6 -6 6 9 16 22 30 34 37 39 36 34 32 32 31 29 28 30 32 33 32 33 36 38 39 37 35 32 29 29 27 26 26 30 32 34 39 43 41 40 38 38 34 28 24 22 22 21 21 23 24 24 25 26 28 29 28 27 26 24 23 25 26 27 28 27 24 22 22 22 22 22 21 19 18 17 16 15 13 12 11 10 9 9 9 9 9 8 8 9 9 9 8 8 8 8 8 7 7 7 8 8 8 8 7 6 6 6 6 6 6 5 5 7 7 5 5 6 6 7 7 7 6 6 8 9 11 14 16 16 17 19 22 23 21 20 19 17 18 17 16 16 15 14 14 14 14 16 16 17 16 15 16 18 20 22 23 23 23 24 25 24 22 21 22 23 23 24 25 24 23 23 24 25 25 24 24 25 27 28 27 27 27 27 27 27 27 27 28 30 30 30 26 25 25 23 21 21 21 21 21 21 20 19 18 17 16 15 14 15 15 14 14 14 14 13 12 14 17 17 15 15 15 15 15 15 17 18 17 16 15 15 15 16 16
-10 -10 -10 -10 -10 -10 -10 -10 -10 -10 -10 -10 -10 -10 -10 -10 -9 -9 -9 -9 -9 -9 -9 -9 -8 -8 -8 -8 -8 -7 -7 -7 -7 -7 -6 -6 -6 7 8 13 20 27 32 36 39 40 36 33 33 33 32 33 35 36 37 37 37 37 38 41 41 40 38 34 31 30 29 27 29 32 35 37 41 44 41 42 42 40 37 32 27 25 24 24 23 24 25 24 25 25 26 25 27 26 26 25 23 23 24 23 22 23 21 20 22 22 22 21 20 19 17 17 16 14 12 10 10 9 9 9 9 9 9 9 9 10 9 8 8 8 8 8 8 8 8 8 8 8 8 8 8 6 6 4 4 6 8 8 7 7 6 5 5 5 6 6 6 5 5 4 5 7 10 13 15 15 16 17 19 20 19 19 18 18 17 17 15 14 14 14 14 13 13 13 14 14 15 15 16 18 19 21 21 21 21 23 24 24 22 20 23 24 25 25 26 26 24 24 24 24 24 24 25 26 28 28 27 27 27 27 27 27 26 25 25 27 29 27 25 23 23 23 22 21 20 20 20 20 20 20 19 18 17 14 13 13 14 14 14 14 13 12 11 12 15 14 14 15 14 14 14 14 17 18 17 16 16 14 14 15 15
-10 -10 -10 -10 -10 -10 -10 -10 -10 -10 -10 -10 -10 -10 -10 -10 -10 -9 -9 -9 -9 -9 -9 -9 -8 -8 -8 -8 -8 -7 -7 -7 -7 -7 -6 -6 -6 10 10 17 26 29 33 36 38 38 35 33 34 34 35 36 39 39 40 41 40 41 41 43 43 42 41 38 36 33 31 28 30 34 38 39 42 43 44 44 46 41 37 31 28 27 26 25 24 23 24 24 24 26 25 24 24 24 25 24 22 21 22 22 21 20 19 20 21 21 20 20 19 17 17 16 15 14 11 10 9 9 10 10 10 10 10 10 10 10 9 8 8 8 8 9 9 9 8 8 8 8 8 8 8 7 5 4 4 6 8 7 6 4 3 3 5 5 6 5 4 4 2 2 4 7 10 11 12 14 15 16 17 18 17 17 18 17 16 15 13 12 12 14 13 12 11 12 12 13 14 15 16 18 19 21 21 20 20 22 23 24 22 21 23 25 25 26 27 26 26 25 25 24 24 25 27 28 28 28 27 28 28 27 26 24 22 22 22 23 26 25 23 22 23 23 22 20 19 20 20 20 20 19 18 17 16 14 14 14 14 14 15 14 14 14 12 11 12 13 14 14 15 14 14 14 15 16 17 17 15 13 13 13 14
-10 -10 -10 -10 -10 -10 -10 -10 -10 -10 -10 -10 -10 -10 -10 -10 -10 -10 -9 -9 -9 -9 -9 -9 -9 -8 -8 -8 -8 -8 -7 -7 -7 -7 -7 -6 -6 8 11 20 28 30 33 35 35 35 34 33 35 36 36 38 40 41 41 42 42 42 43 44 44 44 43 41 40 36 32 30 32 36 39 41 44 46 47 47 46 42 36 31 29 29 27 26 25 24 24 23 24 25 24 24 22 22 23 22 21 21 21 20 19 19 19 19 19 19 18 18 17 16 16 16 15 13 11 10 11 11 11 12 12 12 11 11 11 10 9 9 9 9 9 10 10 9 10 8 8 8 7 8 8 8 6 5 5 7 8 7 6 4 2 4 6 5 6 5 6 4 3 3 5 7 8 10 11 13 14 13 15 16 16 15 16 15 14 12 10 9 11 11 11 10 10 11 12 12 13 14 16 17 18 19 20 20 21 22 23 23 22 22 23 24 26 27 27 26 26 27 26 25 25 27 28 29 29 28 28 29 29 27 26 24 22 20 19 21 23 23 21 21 22 22 21 20 20 20 20 20 19 18 16 16 16 16 16 15 14 14 15 15 15 14 12 11 11 12 13 14 15 14 13 14 14 14 15 14 13 11 11 13 13
-10 -10 -10 -10 -10 -10 -10 -10 -10 -10 -10 -10 -10 -10 -10 -10 -10 -10 -10 -9 -9 -9 -9 -9 -9 -8 -8 -8 -8 -8 -7 -7 -7 -7 -7 -6 -6 6 10 19 24 26 29 31 30 31 32 32 33 34 35 37 39 41 40 40 43 43 44 45 44 44 43 43 41 38 36 35 36 37 40 44 45 47 48 47 46 42 37 33 30 29 28 28 26 25 24 23 22 23 22 22 21 21 21 22 21 21 21 20 19 20 20 20 18 17 17 17 16 16 16 16 15 13 13 13 13 13 13 13 12 13 12 12 12 11 11 11 11 10 9 10 11 10 10 9 8 8 8 8 8 7 6 5 5 7 7 7 7 5 4 5 6 6 6 8 7 5 4 5 6 6 7 8 10 12 12 12 14 14 14 14 13 12 11 10 8 8 8 8 8 7 8 10 11 12 12 14 15 15 15 18 20 21 22 23 23 22 22 23 23 24 26 27 28 27 27 27 26 25 25 26 27 28 28 29 30 30 29 28 26 27 23 20 20 20 21 21 20 20 21 21 21 21 20 19 19 18 18 17 16 15 17 18 18 17 15 14 14 14 14 13 12 11 11 12 13 14 15 15 13 14 14 13 12 12 11 11 11 12 12
-10 -10 -10 -10 -10 -10 -10 -10 -10 -10 -10 -10 -10 -10 -10 -10 -10 -10 -10 -10 -9 -9 -9 -9 -9 -8 -8 -8 -8 -8 -7 -7 -7 -7 -7 -6 -6 5 9 13 18 21 25 28 26 28 28 29 31 32 34 36 38 38 36 36 39 42 44 44 44 43 43 42 41 40 42 42 40 40 43 46 47 48 48 47 45 42 40 35 31 29 29 28 27 25 24 22 21 21 20 19 19 20 21 21 21 20 20 21 21 21 21 20 18 17 17 17 16 16 16 15 15 15 15 15 15 14 13 13 14 14 13 14 14 13 13 13 13 13 11 12 12 12 12 9 8 8 8 8 8 7 6 5 6 7 7 7 6 6 6 6 7 7 7 8 9 7 7 6 5 5 6 8 10 11 10 10 11 12 12 13 11 9 9 8 7 7 7 7 7 7 7 9 11 11 12 14 15 15 15 17 19 21 22 23 22 21 21 23 24 25 26 28 29 28 28 26 25 25 25 25 25 26 28 29 30 30 30 28 27 26 23 21 20 20 20 21 21 20 19 20 20 20 18 17 17 17 17 16 15 15 15 16 17 16 15 15 14 14 12 12 12 13 13 13 13 15 16 15 14 14 14 12 11 12 12 12 11 11 10
-10 -10 -10 -10 -10 -11 -10 -10 -10 -10 -10 -10 -10 -10 -10 -10 -10 -10 -10 -10 -10 -9 -9 -9 -9 -9 -8 -8 -8 -8 -8 -7 -7 -7 -7 -7 -6 4 6 10 14 17 21 22 20 21 22 24 28 29 31 35 35 34 32 32 35 40 42 43 42 42 43 42 41 42 44 44 44 45 47 48 49 48 46 45 43 41 40 38 34 29 29 29 27 25 22 20 18 19 18 16 17 19 20 21 20 19 19 18 19 21 20 18 17 16 16 16 15 15 16 15 16 17 17 16 16 15 15 15 15 16 15 15 15 15 15 15 15 15 13 13 14 14 13 10 8 8 8 8 8 7 7 7 7 8 8 7 6 7 7 7 7 7 8 8 8 8 7 4 4 5 7 9 8 8 8 9 10 10 11 11 9 8 7 7 5 6 8 8 8 8 8 9 10 12 14 15 16 16 16 17 20 21 22 22 21 20 22 23 25 26 27 29 29 29 28 26 25 24 24 24 24 25 26 28 29 28 28 27 25 24 23 21 21 21 21 21 21 20 19 18 18 18 16 16 16 15 14 14 15 15 15 15 15 15 15 15 15 14 12 12 13 16 15 14 14 14 16 15 14 13 13 12 12 12 13 13 11 10 8
-10 -10 -10 -11 -11 -11 -11 -10 -10 -10 -10 -10 -10 -10 -10 -10 -10 -10 -10 -10 -10 -9 -9 -9 -9 -9 -8 -8 -8 -8 -8 -7 -7 -7 -7 -7 -6 -6 6 8 10 11 14 15 14 15 19 22 26 26 27 30 31 30 30 29 30 36 40 41 41 42 43 43 43 45 46 46 47 48 50 51 50 47 46 44 42 41 40 39 36 31 30 29 28 25 22 18 16 17 16 15 17 19 19 19 19 18 16 13 14 16 16 15 15 15 14 14 14 15 16 16 17 18 18 17 16 16 16 15 16 16 16 16 16 16 16 16 16 15 14 14 15 15 14 11 9 9 8 8 8 8 8 7 7 8 8 7 7 9 9 8 7 7 8 8 7 7 7 4 4 6 8 7 6 6 6 7 8 9 10 10 8 7 7 7 6 7 8 8 8 8 10 10 11 13 16 17 17 17 16 17 19 20 21 21 21 22 23 25 25 26 28 28 28 28 27 25 24 23 23 23 23 23 24 24 25 26 25 24 23 22 22 21 21 21 21 20 20 19 18 18 17 16 16 17 16 15 14 14 15 15 15 14 14 14 15 15 14 14 13 13 14 16 17 15 14 14 15 16 14 12 12 12 12 13 15 14 11 9 8
-10 -10 -11 -11 -11 -11 -11 -11 -10 -10 -10 -10 -10 -10 -10 -10 -10 -10 -10 -10 -10 -9 -9 -9 -9 -9 -8 -8 -8 -8 -8 -7 -7 -7 -7 -7 -6 -6 -6 7 7 8 8 11 12 12 15 19 24 25 24 27 27 27 26 27 29 35 38 41 42 43 44 44 45 46 48 48 49 50 52 52 51 49 47 44 42 39 38 37 37 34 32 31 29 25 21 18 17 17 17 16 17 17 17 17 16 16 13 12 10 11 13 13 12 13 13 13 14 15 17 17 17 18 18 17 16 16 16 15 15 16 15 15 15 16 17 16 16 15 14 14 16 16 13 11 9 9 8 8 8 8 8 8 7 7 8 9 10 11 11 10 8 7 8 8 7 7 6 6 5 6 7 6 5 6 5 5 7 8 9 9 8 7 7 7 6 7 8 8 8 10 10 11 12 14 14 15 16 17 17 18 20 21 21 21 22 23 24 24 25 26 27 27 26 25 24 24 23 22 22 22 22 23 23 22 23 24 24 23 22 21 21 21 20 20 20 20 19 19 18 18 17 16 17 17 17 16 15 14 14 15 15 14 13 13 15 15 15 14 13 13 14 15 15 14 14 14 15 15 14 12 12 12 14 15 16 15 12 10 9
-10 -11 -11 -11 -11 -11 -11 -11 -11 -10 -10 -10 -10 -10 -10 -10 -10 -10 -10 -10 -10 -10 -9 -9 -9 -9 -9 -8 -8 -8 -8 -8 -7 -7 -7 -7 -6 -6 -6 -6 6 6 7 9 10 10 13 16 20 22 23 24 25 25 25 27 31 36 38 40 43 44 44 45 45 47 49 50 49 50 51 51 51 50 47 44 41 36 35 36 36 35 32 31 28 22 19 18 18 20 19 17 16 16 15 14 14 13 13 12 11 11 13 14 14 13 13 13 14 16 17 18 17 17 17 17 16 16 16 15 15 15 15 16 15 15 17 17 17 16 15 15 16 15 12 10 9 9 8 8 8 8 9 9 8 8 10 12 12 14 15 14 10 8 9 8 7 7 6 7 7 6 5 6 6 6 5 5 6 7 8 8 7 6 6 6 6 7 7 8 10 11 12 12 13 14 14 14 16 17 17 18 21 22 22 23 24 25 25 25 25 26 27 26 25 24 24 24 23 22 22 22 22 22 22 22 22 22 22 22 21 21 21 21 20 20 19 19 18 18 18 18 17 17 17 18 16 15 14 13 13 14 14 13 12 13 14 14 14 14 12 11 12 13 14 14 13 13 14 14 14 13 13 13 14 15 15 14 13 11 10
-11 -11 -11 -11 -11 -11 -11 -11 -11 -11 -10 -10 -10 -10 -10 -10 -10 -10 -10 -10 -10 -10 -9 -9 -9 -9 -9 -8 -8 -8 -8 -8 -7 -7 -7 -7 -7 -6 -6 -6 -5 6 8 7 6 7 10 14 15 16 19 20 22 25 25 27 29 32 35 40 42 43 43 44 44 45 48 49 48 48 48 49 50 50 46 44 40 33 32 32 34 34 32 30 26 21 19 18 19 21 21 18 16 16 14 12 11 12 12 13 13 12 13 15 14 13 13 12 12 13 16 18 16 15 16 16 16 16 16 15 15 15 16 17 16 16 17 18 18 18 16 15 15 13 11 10 10 9 9 9 9 8 9 10 11 12 14 16 16 17 17 15 13 11 10 9 7 7 8 8 8 7 6 6 6 6 5 5 6 6 7 8 7 7 6 6 7 7 9 10 11 12 13 13 13 13 14 16 16 17 17 19 22 23 23 23 25 26 25 25 26 26 26 25 24 23 24 25 24 22 21 20 20 20 20 21 20 20 20 20 21 21 21 20 20 20 19 18 17 17 17 16 16 16 15 15 14 14 13 13 12 13 13 12 12 12 12 12 13 13 12 10 10 12 12 11 10 10 11 12 13 13 13 13 13 13 13 13 13 12 10
-11 -11 -11 -11 -11 -11 -11 -11 -11 -11 -11 -10 -10 -10 -10 -10 -10 -10 -10 -10 -10 -10 -9 -9 -9 -9 -9 -8 -8 -8 -8 -8 -7 -7 -7 -7 -7 -6 -6 -6 -6 -5 -5 4 5 5 7 10 10 10 11 15 21 24 25 25 26 27 31 37 40 40 40 42 42 42 44 44 45 46 46 47 50 51 48 43 37 32 30 28 30 32 30 28 25 22 21 19 20 21 20 18 17 16 13 10 10 11 12 14 14 12 13 14 13 12 13 12 11 13 15 17 15 14 15 15 15 15 15 16 15 16 17 17 17 17 18 19 20 19 18 16 15 13 12 12 11 10 10 10 9 9 10 13 17 17 19 19 19 18 18 17 16 16 15 13 11 10 11 10 9 8 7 6 6 7 7 5 5 6 6 7 7 6 7 7 7 9 10 11 12 13 13 13 13 13 14 16 16 17 18 19 24 24 23 23 24 25 25 25 26 25 24 24 23 23 24 25 23 21 20 19 19 19 19 20 19 18 19 19 20 21 20 19 19 19 19 19 17 16 16 16 16 15 13 12 13 13 13 12 11 11 11 11 10 10 10 10 12 13 12 10 10 11 10 9 9 8 8 10 12 12 12 12 11 11 11 12 12 10 9
-11 -11 -11 -11 -11 -11 -11 -11 -11 -11 -11 -11 -10 -10 -10 -10 -10 -10 -10 -10 -10 -10 -10 -9 -9 -9 -9 -9 -8 -8 -8 -8 -8 -7 -7 -7 -7 -6 -6 -6 -6 -5 -5 -5 -5 -4 5 7 6 5 9 15 18 21 22 23 24 24 27 34 37 36 35 37 38 39 40 41 44 45 45 46 49 51 47 42 36 32 25 25 27 29 28 27 25 23 22 20 20 20 18 17 17 15 13 11 10 11 12 13 13 13 13 13 10 10 12 12 12 13 14 13 13 13 13 13 13 14 14 15 15 16 17 17 17 17 18 20 20 20 18 17 15 15 14 13 12 11 11 12 11 11 13 15 17 19 20 19 19 19 19 20 19 20 19 17 15 13 12 12 11 9 8 7 7 8 7 5 5 6 7 7 6 6 7 7 8 10 11 12 13 13 13 13 13 13 13 15 16 17 18 19 22 22 23 23 24 24 24 24 24 24 24 24 24 23 24 23 22 20 19 19 17 16 17 18 19 18 17 18 20 20 20 18 17 18 19 18 17 15 16 16 16 15 12 10 12 13 12 11 10 10 9 9 9 8 9 9 10 12 12 10 10 10 10 10 10 9 8 9 11 12 12 11 10 10 10 11 10 9 8
-11 -11 -11 -11 -11 -11 -11 -11 -11 -11 -11 -11 -11 -10 -10 -10 -10 -10 -10 -10 -10 -10 -10 -9 -9 -9 -9 -9 -8 -8 -8 -8 -8 -7 -7 -7 -7 -6 -6 -6 -6 -5 -5 -5 -5 -4 -4 -4 1 2 7 14 16 18 20 22 24 24 25 31 33 31 32 33 35 37 39 41 42 43 44 44 46 46 43 40 35 30 23 21 24 26 27 26 24 23 21 20 18 18 17 16 17 15 12 11 11 12 12 12 12 13 13 10 9 9 12 13 13 14 13 12 12 12 11 11 10 12 13 14 14 15 16 16 17 18 19 20 20 19 19 18 17 17 17 15 13 13 13 14 14 14 14 17 19 19 18 18 19 19 20 20 19 19 19 17 16 16 16 14 12 11 9 8 7 7 5 3 5 8 8 7 5 7 7 7 8 10 11 13 14 13 13 13 13 12 13 15 16 17 17 17 19 20 22 24 24 25 24 23 24 24 24 24 23 22 22 22 20 18 17 16 14 14 15 16 18 18 18 18 20 21 20 18 17 18 18 17 16 15 16 16 16 14 12 11 12 12 11 11 11 9 9 9 8 8 9 9 9 11 11 10 10 11 11 12 11 10 9 9 9 11 12 12 10 10 9 8 7 9 8
-11 -11 -11 -11 -11 -11 -11 -11 -11 -11 -11 -11 -11 -11 -10 -10 -10 -10 -10 -10 -10 -10 -10 -9 -9 -9 -9 -9 -8 -8 -8 -8 -8 -7 -7 -7 -7 -7 -6 -6 -6 -5 -5 -5 -5 -4 -4 -4 -4 -3 4 9 12 15 18 20 21 22 24 27 26 27 27 29 32 35 38 39 41 42 42 42 43 41 38 35 33 29 23 21 22 24 25 24 23 22 20 19 17 16 15 14 15 14 12 11 12 13 12 11 11 12 11 9 9 10 12 13 13 14 13 13 12 11 10 10 9 10 12 13 14 14 15 15 17 18 19 20 21 21 20 20 19 19 18 16 14 15 15 17 16 14 15 18 20 18 17 17 17 16 18 20 18 18 18 18 18 18 18 14 12 11 11 8 7 6 4 4 5 8 9 7 5 7 8 7 7 9 11 12 13 12 12 13 12 12 12 14 15 16 16 16 18 18 19 21 22 23 23 23 24 24 23 21 20 19 19 20 19 17 16 15 13 13 15 16 18 18 19 20 21 21 20 19 18 18 16 15 15 16 16 16 15 14 13 12 11 11 10 11 10 8 8 8 8 9 9 9 9 10 10 10 10 11 11 11 11 10 10 9 9 10 13 12 11 10 9 7 7 7 6
-11 -11 -11 -11 -11 -11 -11 -11 -11 -11 -11 -11 -11 -11 -10 -10 -10 -10 -10 -10 -10 -10 -10 -10 -9 -9 -9 -9 -9 -8 -8 -8 -8 -8 -7 -7 -7 -7 -6 -6 -6 -6 -5 -5 -5 -4 -4 -4 -4 -3 -3 6 9 13 16 17 19 20 22 24 22 23 25 27 31 35 36 37 39 41 40 40 40 39 37 35 31 27 24 22 22 22 22 21 21 21 21 18 16 15 14 13 12 12 11 12 13 13 11 11 11 11 9 9 9 11 12 13 13 13 13 12 12 11 10 10 10 10 11 12 12 13 13 14 16 17 19 20 21 21 22 22 22 21 20 18 17 16 17 17 17 15 15 17 18 16 14 15 14 13 15 17 17 18 18 18 19 19 18 15 11 11 10 7 6 5 4 4 4 7 8 7 5 8 8 7 6 6 9 11 12 12 13 13 12 12 12 14 15 15 15 15 16 17 17 18 19 21 21 22 23 23 22 20 19 18 19 19 18 17 16 15 14 14 15 16 16 17 18 19 20 20 19 18 17 17 16 15 16 15 15 15 15 15 15 14 13 12 11 11 9 8 8 8 8 9 9 8 7 8 9 9 10 11 11 11 10 9 10 9 8 9 12 12 11 10 9 7 6 6 5
-11 -11 -11 -11 -11 -11 -11 -11 -11 -11 -11 -11 -11 -11 -11 -10 -10 -10 -10 -10 -10 -10 -10 -10 -9 -9 -9 -9 -9 -8 -8 -8 -8 -8 -7 -7 -7 -7 -6 -6 -6 -6 -5 -5 -5 -5 -4 -4 -4 -3 -3 -3 4 8 13 15 17 19 21 21 19 20 23 25 29 33 33 34 37 39 39 37 37 38 37 33 30 25 24 23 22 21 19 19 20 22 21 19 16 14 14 13 13 12 12 13 13 12 12 12 12 10 9 9 9 9 10 11 12 12 12 12 12 11 10 10 10 10 10 10 11 12 12 13 14 15 18 19 21 22 23 24 24 23 22 19 18 18 17 17 17 16 15 15 14 13 13 13 13 12 12 14 14 15 17 17 17 18 18 15 13 12 9 6 6 5 5 5 4 6 8 7 7 8 7 4 4 5 7 9 11 12 12 12 11 11 12 14 15 15 15 14 15 16 15 16 18 20 20 20 21 21 20 20 20 19 19 19 19 18 16 15 15 14 15 14 14 14 16 18 19 18 18 18 17 17 17 16 15 15 15 16 16 16 16 15 15 14 14 12 10 9 9 9 9 10 9 8 7 8 8 9 10 11 11 11 10 8 8 10 9 10 12 12 11 10 10 8 6 6 6
-11 -11 -11 -11 -11 -11 -11 -11 -11 -11 -11 -11 -11 -11 -11 -11 -10 -10 -10 -10 -10 -10 -10 -10 -9 -9 -9 -9 -9 -8 -8 -8 -8 -8 -7 -7 -7 -7 -6 -6 -6 -6 -5 -5 -5 -5 -4 -4 -4 -4 -3 -3 1 3 8 12 17 17 18 18 17 17 20 23 26 28 30 32 34 36 35 35 35 35 32 30 27 24 21 21 22 20 17 17 20 21 20 18 15 15 15 15 14 13 13 14 13 13 12 13 12 11 9 9 9 9 9 10 10 10 11 11 12 11 10 9 9 9 9 9 10 10 12 12 12 13 15 18 20 22 23 24 25 24 23 19 17 18 17 17 17 15 14 12 12 12 12 11 12 11 11 11 11 12 14 14 15 15 16 14 14 12 7 5 5 5 5 5 4 5 6 7 8 8 6 3 3 3 5 8 10 12 12 10 11 11 12 14 15 15 15 13 13 14 15 15 17 19 19 18 19 19 19 20 20 20 19 19 19 18 17 16 15 14 14 13 12 14 15 17 17 18 18 18 17 17 17 16 15 15 16 17 17 17 16 16 15 16 15 13 12 11 10 11 11 11 10 9 9 8 8 9 11 11 11 10 8 6 6 8 8 9 11 12 10 9 8 8 6 5 5
-11 -11 -11 -11 -11 -11 -11 -11 -11 -11 -11 -11 -11 -11 -11 -11 -11 -10 -10 -10 -10 -10 -10 -10 -10 -9 -9 -9 -9 -9 -8 -8 -8 -8 -8 -7 -7 -7 -7 -6 -6 -6 -5 -5 -5 -5 -4 -4 -4 -4 -3 -3 -3 1 5 10 13 14 14 13 15 16 19 21 24 25 26 28 27 31 31 32 32 32 29 27 24 21 18 18 21 20 18 18 21 20 19 18 18 17 16 15 15 14 13 14 14 13 12 11 11 11 10 10 10 10 10 9 9 9 10 10 11 10 10 9 9 9 9 9 9 10 11 12 12 11 13 16 19 21 22 23 24 23 22 18 17 17 16 15 15 14 12 11 11 11 11 10 10 10 11 11 10 11 12 10 10 11 11 11 11 11 7 4 4 5 5 4 3 4 5 6 8 8 6 3 3 3 5 8 10 11 11 10 10 11 11 11 12 13 13 12 12 13 15 15 17 17 17 17 18 19 20 20 20 19 19 18 18 18 16 15 15 14 14 13 14 14 15 16 16 18 19 18 17 17 17 15 15 16 16 16 16 16 16 15 14 15 14 13 12 11 11 12 12 13 12 11 10 8 7 9 10 11 11 10 7 5 6 6 5 6 8 8 7 4 5 5 4 5 6
-11 -11 -11 -11 -11 -11 -11 -11 -11 -11 -11 -11 -11 -11 -11 -11 -11 -11 -10 -10 -10 -10 -10 -10 -10 -9 -9 -9 -9 -9 -8 -8 -8 -8 -8 -7 -7 -7 -7 -6 -6 -6 -6 -5 -5 -5 -4 -4 -4 -4 -3 -3 -3 4 7 8 8 10 10 11 14 18 19 20 21 23 24 22 24 27 27 26 27 30 28 26 23 19 16 16 19 20 19 19 20 20 21 21 20 19 16 14 15 15 13 14 14 14 12 10 10 10 10 10 10 10 10 10 9 9 9 10 10 10 10 9 10 9 9 9 10 10 11 11 12 11 12 14 16 19 20 21 22 22 21 18 15 15 14 14 14 12 11 10 9 10 9 8 7 8 9 10 9 9 9 7 7 7 8 7 8 10 8 5 5 6 5 4 4 5 5 6 7 7 5 3 4 4 4 6 8 10 11 9 10 11 9 9 10 10 11 11 12 14 15 16 16 16 16 16 17 19 20 20 20 18 17 17 17 16 14 13 14 14 14 14 14 14 14 14 15 16 17 18 17 16 15 15 15 16 16 15 13 13 14 13 12 12 12 12 11 12 11 11 12 12 12 12 12 9 7 8 9 10 10 8 7 5 5 5 5 5 5 4 3 3 3 5 5 6 7
-11 -11 -11 -11 -11 -11 -11 -11 -11 -11 -11 -11 -11 -11 -11 -11 -11 -11 -11 -11 -10 -10 -10 -10 -10 -9 -9 -9 -9 -9 -8 -8 -8 -8 -8 -7 -7 -7 -7 -6 -6 -6 -6 -5 -5 -5 -5 -4 -4 -4 -3 -3 -3 -3 7 6 7 8 10 12 15 18 19 18 20 22 23 22 24 25 25 24 24 26 25 23 20 18 16 17 19 19 19 17 16 17 18 20 21 19 16 14 14 14 13 13 14 14 12 10 10 9 10 11 10 10 11 10 9 9 8 9 10 10 9 10 10 10 9 9 9 10 10 11 11 11 11 12 14 15 17 19 20 20 19 15 13 12 11 12 11 10 10 9 8 9 8 7 7 7 7 8 8 7 8 6 6 7 7 7 8 9 9 6 6 7 7 6 4 4 4 5 6 5 3 1 2 5 4 4 6 9 9 8 8 9 9 10 10 9 10 11 12 14 15 16 16 16 15 15 16 17 18 19 19 18 16 16 15 12 10 11 12 13 14 14 12 12 13 14 15 14 15 17 16 14 13 13 14 15 15 14 12 11 12 11 9 9 9 8 9 9 10 9 10 10 10 11 11 9 8 8 7 9 8 7 5 4 4 5 5 2 2 1 1 4 6 6 7 8 9
-11 -11 -11 -11 -11 -11 -11 -11 -11 -11 -11 -11 -11 -11 -11 -11 -11 -11 -11 -11 -11 -10 -10 -10 -10 -10 -9 -9 -9 -9 -9 -8 -8 -8 -8 -8 -7 -7 -7 -6 -6 -6 -6 -5 -5 -5 -5 -4 -4 -4 -4 -3 -3 -3 -2 5 6 7 8 11 14 18 17 17 19 22 22 21 23 25 23 23 23 23 23 22 20 18 16 17 19 20 19 17 16 15 15 17 17 16 16 14 14 13 12 12 13 13 11 11 11 10 11 11 10 10 10 10 10 9 9 9 10 9 9 9 10 10 10 10 10 9 10 10 11 11 11 11 12 12 13 16 17 17 16 12 11 11 11 11 10 9 10 10 8 8 8 8 8 8 7 7 7 6 7 6 6 6 7 8 9 9 8 5 5 6 6 5 4 4 5 4 4 3 0 -2 1 5 6 3 4 6 6 6 7 8 9 11 10 9 10 11 12 13 15 16 17 15 14 13 14 14 15 17 17 17 16 15 13 10 8 8 10 11 13 13 12 11 12 13 14 14 14 15 13 12 11 12 13 13 12 12 11 10 10 9 9 7 5 5 7 7 7 7 8 8 9 9 10 9 8 7 7 8 8 6 4 2 3 5 4 3 3 1 2 6 7 8 8 10 10
-11 -11 -11 -11 -11 -11 -11 -11 -11 -11 -11 -11 -11 -11 -11 -11 -11 -11 -11 -11 -11 -10 -10 -10 -10 -10 -9 -9 -9 -9 -9 -8 -8 -8 -8 -8 -7 -7 -7 -7 -6 -6 -6 -5 -5 -5 -5 -4 -4 -4 -4 -3 -3 -3 -2 -2 -2 6 8 11 15 17 17 16 16 19 19 20 22 25 23 22 22 22 21 20 21 19 16 17 18 20 19 17 15 14 13 12 13 13 13 13 13 12 11 11 12 11 11 11 12 11 11 11 11 10 9 9 10 10 10 10 9 9 9 9 9 9 9 10 9 9 10 10 10 11 10 10 10 11 12 13 14 14 12 11 10 11 11 11 10 9 9 10 8 7 7 8 10 9 6 5 5 6 7 6 5 5 5 7 9 9 7 5 4 4 4 5 6 7 7 6 4 1 -1 -3 1 5 6 5 5 4 5 6 6 8 10 10 10 9 9 10 12 13 14 16 16 14 12 11 13 13 14 14 14 14 14 14 12 10 8 7 8 10 11 12 11 10 10 10 11 11 12 11 11 10 10 13 13 11 10 10 9 8 8 7 6 5 4 5 8 8 5 7 8 8 8 9 9 8 8 7 7 8 7 6 5 5 5 5 5 5 6 5 4 6 8 9 9 10 10
-11 -11 -11 -11 -11 -11 -11 -11 -11 -11 -11 -11 -11 -11 -11 -11 -11 -11 -11 -11 -11 -10 -10 -10 -10 -10 -9 -9 -9 -9 -9 -8 -8 -8 -8 -8 -7 -7 -7 -7 -6 -6 -6 -6 -5 -5 -5 -4 -4 -4 -4 -3 -3 -3 -3 -2 -2 4 8 13 14 16 17 16 14 14 16 18 21 23 22 21 20 19 19 19 19 18 15 16 17 17 17 16 14 12 12 11 12 12 12 12 13 12 11 10 11 10 10 10 11 11 11 11 11 10 9 9 10 10 10 10 9 9 9 10 9 8 9 9 9 9 10 10 9 10 10 10 9 10 10 11 12 12 9 9 9 9 10 10 10 8 7 8 8 7 6 9 11 10 5 4 5 7 8 7 5 4 4 7 8 9 8 6 5 3 3 6 8 9 8 6 4 3 1 0 1 5 5 6 5 6 7 6 5 7 9 10 9 8 8 9 10 11 12 14 13 11 10 10 11 12 12 12 12 9 9 10 10 10 9 8 7 8 10 10 9 8 9 8 8 10 11 10 9 8 9 11 11 10 9 9 8 7 5 4 5 5 3 5 8 6 4 6 7 8 8 8 8 8 8 7 7 7 7 6 6 8 8 7 7 7 7 6 6 7 8 7 8 9 9
-11 -11 -11 -11 -11 -11 -11 -11 -11 -11 -11 -11 -11 -11 -11 -11 -11 -11 -11 -11 -11 -11 -10 -10 -10 -10 -10 -9 -9 -9 -9 -9 -8 -8 -8 -8 -7 -7 -7 -7 -6 -6 -6 -6 -5 -5 -5 -5 -4 -4 -4 -3 -3 -3 -3 -2 -2 5 9 13 14 14 16 16 13 13 14 17 18 18 18 17 16 17 18 18 18 16 15 16 17 17 16 16 14 13 11 10 10 11 11 10 11 12 11 11 12 11 10 9 10 11 11 11 11 10 8 9 10 11 10 9 8 10 10 10 10 9 9 9 9 9 10 10 10 11 11 9 8 9 10 11 11 10 9 9 9 8 9 9 9 8 8 8 8 7 5 6 10 8 5 5 5 7 7 7 5 4 4 7 8 8 8 6 6 4 4 6 8 8 7 6 5 3 3 3 3 2 4 5 5 5 6 5 3 5 8 10 9 8 7 7 9 9 9 12 11 10 9 9 9 10 10 10 9 6 6 7 8 8 9 7 6 7 8 8 6 6 7 6 6 9 10 9 9 8 7 9 8 8 8 9 8 7 6 6 6 5 3 4 5 5 5 6 7 7 7 7 8 8 7 7 7 8 7 7 8 8 8 7 7 7 6 5 6 7 7 7 7 8 9
-11 -11 -11 -11 -11 -11 -11 -11 -11 -11 -11 -11 -11 -11 -11 -11 -11 -11 -11 -11 -11 -11 -10 -10 -10 -10 -10 -9 -9 -9 -9 -9 -8 -8 -8 -8 -8 -7 -7 -7 -6 -6 -6 -6 -5 -5 -5 -5 -4 -4 -4 -4 -3 -3 -3 -3 -2 8 10 13 15 14 14 13 13 13 13 14 15 15 15 15 15 16 17 17 16 14 13 14 15 15 15 15 15 13 11 10 9 10 11 9 10 11 11 12 12 11 10 9 9 10 10 11 12 12 9 8 9 9 9 8 8 9 10 9 10 10 10 9 9 10 10 11 10 11 11 10 9 9 10 11 11 10 9 10 10 8 8 8 8 9 9 9 8 8 4 4 7 6 5 4 6 8 7 7 6 5 5 7 8 7 6 5 6 4 4 6 7 8 8 6 5 4 4 5 4 2 0 4 5 4 4 3 3 4 7 9 9 8 7 7 7 8 8 10 10 9 9 8 8 11 10 9 8 7 5 6 7 8 8 7 6 6 7 6 5 5 7 3 4 7 8 8 10 8 7 9 7 6 8 8 9 8 7 7 7 6 3 3 5 5 4 6 7 7 7 7 8 8 7 7 7 7 7 7 8 8 7 7 6 6 5 4 5 7 7 7 7 8 8
-11 -11 -11 -11 -11 -11 -11 -11 -11 -11 -11 -11 -11 -11 -11 -11 -11 -11 -11 -11 -11 -11 -10 -10 -10 -10 -10 -9 -9 -9 -9 -9 -8 -8 -8 -8 -8 -7 -7 -7 -7 -6 -6 -6 -5 -5 -5 -5 -4 -4 -4 -4 -3 -3 -3 -3 -3 9 10 13 15 15 14 13 13 14 12 10 12 14 14 14 13 14 13 13 12 11 12 14 13 12 12 13 14 13 11 11 9 10 10 11 10 11 11 12 12 10 10 10 10 10 10 11 13 13 12 9 9 7 6 8 8 8 9 9 10 11 10 9 9 10 10 10 10 11 11 10 10 10 10 11 11 10 10 10 10 9 7 7 8 11 10 9 8 9 8 7 6 7 5 6 7 7 7 8 7 6 6 7 7 6 4 4 6 4 5 7 8 9 8 6 5 4 4 5 6 0 0 0 0 4 4 4 3 4 7 9 8 7 6 6 7 6 6 8 10 10 9 8 10 12 11 9 9 9 7 5 5 7 8 7 6 6 7 8 7 7 8 5 5 8 6 6 8 7 8 10 8 6 7 9 9 8 5 6 6 5 3 1 4 5 5 5 6 6 7 7 6 7 7 7 7 7 6 7 7 7 7 7 6 7 6 6 6 6 6 6 5 6 7
-11 -11 -11 -11 -11 -11 -11 -11 -11 -11 -11 -11 -11 -11 -11 -11 -11 -11 -11 -11 -11 -11 -11 -10 -10 -10 -10 -10 -9 -9 -9 -9 -9 -8 -8 -8 -8 -7 -7 -7 -7 -6 -6 -6 -6 -5 -5 -5 -4 -4 -4 -4 -4 -3 -3 -3 -3 6 8 12 15 14 14 14 14 15 12 9 11 13 13 11 10 10 10 12 12 11 12 13 13 12 11 12 12 12 11 12 11 8 10 10 10 11 12 12 11 10 11 12 11 11 11 12 13 13 12 12 10 8 7 9 8 8 9 9 9 10 10 10 9 10 11 11 11 11 11 11 10 8 8 9 9 9 9 9 9 9 8 7 8 11 11 9 8 9 10 7 7 6 7 7 7 7 7 9 9 7 7 6 5 3 3 4 6 5 5 7 9 8 7 5 4 3 3 5 8 7 0 0 0 0 0 5 4 4 6 8 7 5 5 6 6 5 5 6 8 10 11 10 9 11 10 9 9 9 7 5 5 5 7 7 6 5 6 6 6 7 6 4 6 7 6 5 6 6 8 10 10 8 7 9 8 7 5 4 4 6 4 2 3 4 5 4 4 5 5 5 6 6 7 7 7 6 5 6 6 7 7 6 6 7 7 7 7 6 6 6 4 5 6
-11 -11 -11 -11 -11 -11 -11 -11 -11 -11 -11 -11 -11 -11 -11 -11 -11 -11 -11 -11 -11 -11 -11 -10 -10 -10 -10 -10 -9 -9 -9 -9 -9 -8 -8 -8 -8 -7 -7 -7 -7 -6 -6 -6 -6 -5 -5 -5 -5 -4 -4 -4 -4 -3 -3 -3 -3 5 9 12 14 15 15 15 13 13 13 12 12 13 12 10 10 9 9 11 12 12 12 13 13 12 11 12 12 11 12 13 12 8 8 10 11 12 11 10 10 10 11 11 12 11 11 12 12 11 11 12 10 8 8 9 9 9 9 8 8 8 8 9 9 10 11 11 11 11 10 10 10 9 8 8 8 8 8 7 7 9 9 8 9 11 11 9 8 8 8 6 5 5 6 7 8 9 8 9 9 7 6 4 2 2 3 6 7 5 4 6 7 7 6 5 4 3 3 6 7 6 0 0 0 0 0 0 0 5 5 6 6 5 5 7 7 6 5 5 6 8 10 9 8 7 7 7 8 7 6 5 5 5 7 7 6 5 4 4 5 5 4 3 5 6 6 5 5 7 7 9 10 7 6 6 6 7 6 4 5 6 6 5 5 5 4 4 4 4 4 4 6 7 6 6 5 5 6 6 6 6 5 6 6 7 7 7 6 5 6 6 5 4 5
-11 -11 -11 -11 -11 -11 -11 -11 -11 -11 -11 -11 -11 -11 -11 -11 -11 -11 -11 -11 -11 -11 -11 -10 -10 -10 -10 -10 -9 -9 -9 -9 -9 -9 -8 -8 -8 -8 -7 -7 -7 -7 -6 -6 -6 -6 -5 -5 -5 -4 -4 -4 -4 -4 -3 -3 -3 7 11 13 15 16 18 17 14 12 13 13 13 12 10 10 10 10 10 11 13 13 12 13 13 12 12 13 12 11 12 13 13 9 7 9 11 12 12 9 10 10 10 11 11 10 11 12 11 9 9 9 10 8 7 9 10 9 8 7 7 8 8 8 8 7 8 9 9 8 7 8 10 10 9 8 8 8 8 7 7 9 9 8 9 10 10 10 8 6 6 5 5 5 5 7 9 9 10 9 7 5 5 4 3 3 3 5 6 6 5 4 5 6 6 5 5 4 3 6 5 5 0 0 0 0 0 0 0 0 5 6 6 5 6 7 7 6 6 6 5 6 7 7 6 4 5 6 7 6 5 5 5 5 7 7 7 5 5 4 3 4 4 4 6 7 6 5 5 6 6 6 6 5 4 5 6 6 6 6 6 6 6 6 5 5 5 5 4 4 5 5 6 6 6 5 4 5 6 6 5 4 4 6 6 6 6 6 5 4 5 5 5 5 4
-11 -11 -11 -11 -11 -11 -11 -11 -11 -11 -11 -11 -11 -11 -11 -11 -11 -11 -11 -11 -11 -11 -11 -10 -10 -10 -10 -10 -9 -9 -9 -9 -9 -9 -8 -8 -8 -8 -7 -7 -7 -7 -6 -6 -6 -6 -5 -5 -5 -5 -4 -4 -4 -4 -4 -3 -3 9 11 15 17 17 18 18 15 13 12 12 12 10 9 10 10 10 10 11 13 14 12 12 13 13 12 12 12 11 12 13 13 11 8 8 10 12 12 11 9 10 10 12 12 11 12 12 10 9 9 9 9 8 8 9 9 9 8 6 6 7 7 7 6 5 5 7 8 7 5 6 8 10 8 8 9 8 7 7 7 8 8 8 9 9 8 8 7 6 6 5 5 5 5 6 8 9 8 8 5 5 5 5 5 4 4 3 5 7 6 5 6 7 7 6 6 6 4 4 5 4 3 0 0 0 0 0 0 0 0 6 7 5 5 7 7 6 6 6 4 4 6 6 5 4 4 6 7 6 5 4 5 5 6 7 7 6 5 5 5 5 6 6 7 7 6 5 5 6 6 5 5 3 3 6 6 6 6 6 6 5 5 6 6 5 5 5 5 5 5 5 5 5 5 5 5 5 6 6 5 4 4 6 6 5 5 5 5 5 5 5 6 5 5
-10 -11 -11 -11 -11 -11 -11 -11 -11 -11 -11 -11 -11 -11 -11 -11 -11 -11 -11 -11 -11 -11 -10 -10 -10 -10 -10 -10 -10 -9 -9 -9 -9 -9 -9 -8 -8 -8 -8 -7 -7 -7 -7 -6 -6 -6 -6 -5 -5 -5 -5 -4 -4 -4 -4 -3 -3 5 10 15 17 17 16 16 14 13 14 13 12 11 12 12 11 11 11 12 13 14 12 13 14 14 12 13 13 12 12 13 13 12 9 9 10 11 12 11 10 10 11 11 12 13 13 12 9 8 9 9 9 8 8 7 7 8 7 6 6 7 6 6 6 6 6 6 7 8 6 6 7 8 8 7 9 8 6 7 8 9 10 8 9 9 7 7 6 7 7 5 5 5 5 6 7 7 6 6 6 6 6 6 4 4 4 4 5 7 7 6 7 8 8 7 6 7 5 4 6 6 5 0 0 0 0 0 0 0 0 0 6 6 5 5 6 6 5 5 4 4 5 4 4 4 5 7 8 7 5 5 5 6 6 6 6 5 5 6 6 7 7 7 7 6 5 5 5 6 6 5 5 4 4 6 6 6 6 6 5 4 5 6 7 6 5 5 5 5 5 5 5 5 5 5 5 6 7 6 5 4 5 5 5 6 6 6 6 6 5 5 6 6 6
-10 -10 -11 -11 -11 -11 -11 -11 -11 -11 -11 -11 -11 -11 -11 -11 -11 -11 -11 -11 -11 -11 -10 -10 -10 -10 -10 -10 -10 -9 -9 -9 -9 -9 -9 -9 -8 -8 -8 -8 -7 -7 -7 -7 -6 -6 -6 -6 -5 -5 -5 -5 -4 -4 -4 -4 7 9 10 13 15 17 15 14 12 14 15 13 11 12 13 14 13 12 12 11 11 14 14 14 15 15 14 13 14 13 12 12 13 12 10 11 13 13 12 10 9 9 10 10 12 12 12 10 8 8 8 9 9 9 8 7 6 7 7 6 5 6 5 5 6 8 7 6 7 8 9 8 8 9 8 8 8 8 7 7 9 10 10 9 9 9 9 8 7 6 6 5 5 6 6 8 7 6 6 7 7 7 7 5 4 4 5 6 8 10 9 7 8 8 8 7 6 7 6 5 6 8 6 0 0 0 0 0 0 0 0 0 0 5 5 4 4 4 4 3 3 4 5 4 3 4 6 9 9 8 6 6 5 5 5 6 5 5 6 6 6 6 7 7 6 6 6 5 6 6 7 6 5 5 5 6 6 6 6 6 6 4 5 6 7 6 6 6 6 6 6 5 5 5 6 6 6 7 7 6 5 5 5 5 6 6 6 6 7 6 6 6 6 5 5
-10 -10 -10 -11 -11 -11 -11 -11 -11 -11 -11 -11 -11 -11 -11 -11 -11 -11 -11 -11 -11 -11 -10 -10 -10 -10 -10 -10 -10 -9 -9 -9 -9 -9 -9 -9 -8 -8 -8 -8 -7 -7 -7 -7 -6 -6 -6 -6 -5 -5 -5 -5 -5 -4 -4 -4 6 11 10 12 14 13 12 11 11 13 14 12 11 11 13 14 13 13 12 10 11 15 16 15 15 15 14 13 13 13 11 12 12 12 10 10 12 13 12 10 9 9 9 9 11 11 11 10 9 9 9 9 9 9 9 8 7 7 7 6 4 3 3 5 7 8 8 7 8 9 10 10 10 11 9 8 9 9 7 8 10 10 9 8 8 8 9 9 7 6 7 5 5 6 6 7 6 6 7 7 7 6 6 5 4 3 5 6 7 10 9 6 8 8 7 7 7 6 6 6 6 6 4 0 0 0 0 0 0 0 0 0 0 4 4 4 3 4 4 4 4 4 5 4 3 3 7 9 10 9 8 7 5 5 4 5 5 5 6 6 5 5 6 6 5 6 6 5 5 6 6 6 5 5 5 6 6 5 5 6 5 5 5 6 6 6 6 6 6 6 6 5 7 7 7 7 7 7 6 5 4 5 6 6 6 6 5 4 4 5 6 6 5 4 3
-10 -10 -10 -10 -11 -11 -11 -11 -11 -11 -11 -11 -11 -11 -11 -11 -11 -11 -11 -11 -11 -10 -10 -10 -10 -10 -10 -10 -10 -10 -9 -9 -9 -9 -9 -9 -9 -8 -8 -8 -8 -7 -7 -7 -7 -6 -6 -6 -6 -5 -5 -5 -5 -4 -4 -4 -4 10 10 11 12 10 9 9 10 11 13 10 10 11 12 13 13 12 11 10 12 16 17 15 14 14 13 12 13 12 11 11 13 13 12 10 11 12 12 11 10 8 8 8 10 11 10 10 10 10 10 9 9 9 8 7 7 7 7 7 5 4 5 7 8 8 8 7 8 9 10 11 12 13 10 9 10 9 7 8 9 9 8 6 6 7 8 7 6 7 7 6 6 6 5 5 4 4 5 6 6 5 6 7 5 4 4 4 4 7 7 5 7 7 6 6 7 7 7 6 5 4 3 0 0 0 0 0 0 0 0 0 0 0 0 3 4 5 4 4 4 5 5 5 3 3 6 7 8 8 7 7 6 6 5 4 5 5 5 5 5 4 5 5 4 5 5 4 4 5 6 6 5 5 5 6 6 5 5 5 6 6 6 7 6 6 6 6 5 5 5 5 7 7 7 7 7 6 6 6 5 5 6 7 6 6 5 3 3 4 5 5 4 2 2
-10 -10 -10 -10 -10 -11 -11 -11 -11 -11 -11 -11 -11 -11 -11 -11 -11 -11 -11 -11 -11 -10 -10 -10 -10 -10 -10 -10 -10 -10 -9 -9 -9 -9 -9 -9 -9 -8 -8 -8 -8 -8 -7 -7 -7 -7 -6 -6 -6 -6 -5 -5 -5 -5 -4 -4 5 9 10 10 9 9 8 8 9 9 10 8 9 9 10 11 11 11 11 12 12 16 16 14 13 12 12 12 12 12 11 12 13 14 14 12 11 12 12 12 10 8 8 9 11 13 11 10 10 11 11 10 10 8 7 7 7 7 7 7 6 6 8 9 10 8 6 7 8 8 8 10 12 11 9 8 9 8 7 7 7 7 6 4 4 5 6 5 6 8 9 10 8 5 4 4 4 3 3 5 6 5 6 7 6 4 3 3 3 4 6 6 5 4 5 5 6 7 7 7 6 5 4 0 0 0 0 0 0 0 0 0 0 0 0 0 0 5 3 3 5 5 6 6 4 3 4 5 6 7 5 6 7 7 5 3 5 6 5 5 4 4 5 5 5 4 3 3 3 4 5 6 6 5 4 5 6 5 4 5 4 5 5 6 7 6 6 5 5 4 5 5 6 6 6 6 6 5 6 6 5 5 5 7 6 5 4 4 5 5 5 5 3 1 1
