ncols         457
nrows         31
xllcorner     367467.146667
yllcorner     6537532.56556
cellsize      20.000000
NODATA_value  -9999.000000
-5.000	-5.000	-5.000	-5.000	-5.000	-5.000	-5.000	-5.000	-5.000	-5.000	-5.000	-5.000	-5.000	-5.000	-5.000	-5.000	-5.000	-5.000	-5.000	-5.000	-5.000	-5.000	-5.000	-5.000	-5.000	-5.000	-5.000	-5.000	-5.000	-5.000	-5.000	-5.000	-5.000	-5.000	-5.000	-5.000	-5.000	-5.000	-5.000	-5.000	-5.000	-5.000	-5.000	-5.000	-5.000	-5.000	-5.000	-5.000	-5.000	-5.000	-5.000	-5.000	-5.000	-5.000	-5.000	-5.000	-5.000	-5.000	-5.000	-5.000	-5.000	-5.000	-5.000	-5.000	-5.000	-5.000	-5.000	-5.000	-5.000	-5.000	-5.000	-5.000	-5.000	-5.000	-5.000	-5.000	-5.000	-5.000	-5.000	-5.000	-5.000	-5.000	-5.000	-5.000	-5.000	-5.000	-5.000	-5.000	-5.000	-5.000	-5.000	-5.000	-5.000	-5.000	-5.000	-5.000	-5.000	-5.000	-5.000	-5.000	-5.000	-5.000	-5.000	-5.000	-5.000	-5.000	-5.000	-5.000	-5.000	-0.000	-0.000	-0.000	-0.000	-0.000	0.130	0.250	0.460	0.900	1.100	1.470	2.070	2.790	3.630	5.360	5.570	5.000	4.390	3.970	4.270	4.940	6.170	6.830	7.060	8.970	7.620	8.170	9.740	8.130	7.070	8.960	10.200	8.880	8.220	7.440	7.460	6.760	7.530	8.360	9.470	8.710	8.330	9.730	10.220	8.940	8.760	8.390	10.930	9.560	8.750	10.820	6.830	6.800	7.870	10.100	10.650	11.300	11.170	10.120	11.460	10.280	11.340	11.680	12.720	12.480	11.350	9.770	7.600	6.550	6.030	5.820	5.390	5.240	4.830	5.220	4.570	4.440	4.460	4.600	4.370	4.080	4.330	4.060	4.090	4.190	4.040	4.160	4.160	4.400	4.260	3.960	4.160	3.950	4.110	3.850	3.770	3.950	3.710	3.630	3.790	3.500	3.520	3.210	3.060	2.880	2.850	2.710	2.830	3.040	3.200	3.120	3.200	3.420	3.280	3.270	3.110	3.170	3.260	3.520	3.100	3.280	3.020	2.980	2.720	3.440	2.860	2.940	3.260	2.470	2.010	3.020	3.320	3.630	1.750	2.620	2.450	3.010	2.580	3.300	2.040	3.310	3.050	2.850	2.510	2.490	2.890	2.730	2.250	2.100	2.200	2.130	2.140	2.610	2.760	2.120	1.740	2.740	2.555	2.555	2.710	2.170	2.670	2.410	2.380	2.590	2.390	2.600	2.960	2.010	2.640	2.610	2.130	2.040	2.190	3.400	3.290	2.630	2.450	2.530	2.514	2.514	2.514	3.040	2.870	2.730	2.600	3.390	2.870	3.180	2.000	2.180	2.260	3.370	2.690	2.890	2.030	2.030	2.070	2.310	2.160	2.514	2.514	2.490	0.420	0.700	3.190	3.470	2.510	2.430	2.720	2.730	2.430	2.490	2.990	2.290	1.860	2.280	1.390	3.310	3.660	1.840	1.820	1.940	2.390	2.270	2.500	2.650	3.150	3.180	2.800	5.310	3.320	4.050	4.350	4.250	3.830	3.310	2.590	2.150	3.280	2.990	3.020	2.870	4.333	4.333	1.010	0.850	0.860	0.710	0.650	0.580	0.460	0.510	0.550	0.420	0.420	0.380	0.490	0.180	0.190	0.160	0.090	0.220	0.120	0.070	0.030	-0.000	-0.000	-0.000	-0.000	-0.000	-0.000	-0.000	-0.000	-0.000	-0.000	-0.000	-0.000	-0.000	-0.000	-0.000	-0.000	-0.000	-0.000	-0.000	-5.000	-5.000	-5.000	-5.000	-5.000	-5.000	-5.000	-5.000	-5.000	-5.000	-5.000	-5.000	-5.000	-5.000	-5.000	-5.000	-5.000	-5.000	-5.000	-5.000	-5.000	-5.000	-5.000	-5.000	-5.000	-5.000	-5.000	-5.000	-5.000	-5.000	-5.000	-5.000	-5.000	-5.000	-5.000	-5.000	-5.000	-5.000	-5.000	-5.000	-5.000	-5.000	-5.000	-5.000	-5.000	-5.000	-5.000	-5.000	-5.000	-5.000	-5.000	-5.000	-5.000	-5.000	-5.000	-5.000	-5.000	-5.000	-5.000	-5.000	-5.000	-5.000	-5.000
-5.000	-5.000	-5.000	-5.000	-5.000	-5.000	-5.000	-5.000	-5.000	-5.000	-5.000	-5.000	-5.000	-5.000	-5.000	-5.000	-5.000	-5.000	-5.000	-5.000	-5.000	-5.000	-5.000	-5.000	-5.000	-5.000	-5.000	-5.000	-5.000	-5.000	-5.000	-5.000	-5.000	-5.000	-5.000	-5.000	-5.000	-5.000	-5.000	-5.000	-5.000	-5.000	-5.000	-5.000	-5.000	-5.000	-5.000	-5.000	-5.000	-5.000	-5.000	-5.000	-5.000	-5.000	-5.000	-5.000	-5.000	-5.000	-5.000	-5.000	-5.000	-5.000	-5.000	-5.000	-5.000	-5.000	-5.000	-5.000	-5.000	-5.000	-5.000	-5.000	-5.000	-5.000	-5.000	-5.000	-5.000	-5.000	-5.000	-5.000	-5.000	-5.000	-5.000	-5.000	-5.000	-5.000	-5.000	-5.000	-5.000	-5.000	-5.000	-5.000	-5.000	-5.000	-5.000	-5.000	-5.000	-5.000	-5.000	-5.000	-5.000	-5.000	-5.000	-5.000	-5.000	-5.000	-5.000	-5.000	-5.000	-0.000	-0.000	-0.000	-0.000	-0.000	0.040	0.120	0.400	0.830	1.100	1.490	2.020	2.410	3.430	6.700	6.290	4.520	4.080	3.740	3.990	4.710	5.390	6.890	7.120	8.370	8.360	7.400	8.860	8.430	7.620	10.170	10.140	8.430	9.270	7.750	7.680	8.260	6.630	8.370	7.910	8.000	8.720	9.900	10.370	9.650	8.980	10.170	10.280	9.090	8.250	10.420	6.680	7.180	7.930	10.570	9.510	10.670	12.130	11.650	12.540	12.380	11.010	11.630	12.140	11.820	11.450	9.540	8.020	6.960	6.340	6.030	5.610	5.240	5.010	5.400	5.220	4.610	4.180	4.390	4.450	4.320	4.290	4.190	4.160	4.290	4.460	4.370	4.510	4.170	4.050	3.880	4.100	4.000	4.010	4.040	3.970	3.870	3.880	3.770	3.580	3.920	3.390	3.220	3.120	3.160	2.690	2.760	2.810	2.890	2.870	3.430	3.270	3.260	3.170	3.210	3.270	3.110	2.970	2.820	2.890	3.310	2.960	3.100	2.840	3.150	2.920	3.080	2.920	3.510	3.440	2.190	2.250	2.300	1.880	2.040	2.680	2.840	2.160	2.070	2.420	2.000	2.470	1.930	3.040	2.590	2.720	2.330	2.430	2.070	2.040	1.980	2.190	2.470	3.070	1.910	1.770	2.750	2.550	2.555	2.600	2.650	2.650	2.260	2.460	2.180	2.270	1.590	2.590	2.490	3.150	2.640	2.060	3.230	1.980	2.150	2.770	2.650	3.260	2.514	2.514	2.514	3.080	3.020	2.490	3.210	2.680	3.280	2.570	2.860	3.190	3.920	2.230	2.520	2.240	2.420	1.930	1.980	2.010	2.270	2.510	2.450	2.514	2.514	1.580	0.190	0.440	3.730	3.360	2.580	2.650	2.400	2.570	2.660	3.140	2.750	2.300	2.290	2.270	1.980	1.930	2.200	1.990	2.140	3.590	2.470	2.420	3.100	3.350	3.170	2.850	4.410	4.560	3.370	3.990	4.430	4.300	4.020	3.810	3.530	2.820	2.910	2.840	3.060	3.300	4.333	1.180	1.110	0.870	0.630	1.010	0.800	0.490	0.360	0.420	0.420	0.370	0.220	0.220	0.300	0.140	0.150	0.120	0.110	0.120	0.050	-0.000	-0.000	-0.000	-0.000	-0.000	-0.000	-0.000	-0.000	-0.000	-0.000	-0.000	-0.000	-0.000	-0.000	-0.000	-0.000	-0.000	-0.000	-0.000	-0.000	-5.000	-5.000	-5.000	-5.000	-5.000	-5.000	-5.000	-5.000	-5.000	-5.000	-5.000	-5.000	-5.000	-5.000	-5.000	-5.000	-5.000	-5.000	-5.000	-5.000	-5.000	-5.000	-5.000	-5.000	-5.000	-5.000	-5.000	-5.000	-5.000	-5.000	-5.000	-5.000	-5.000	-5.000	-5.000	-5.000	-5.000	-5.000	-5.000	-5.000	-5.000	-5.000	-5.000	-5.000	-5.000	-5.000	-5.000	-5.000	-5.000	-5.000	-5.000	-5.000	-5.000	-5.000	-5.000	-5.000	-5.000	-5.000	-5.000	-5.000	-5.000	-5.000	-5.000
-5.000	-5.000	-5.000	-5.000	-5.000	-5.000	-5.000	-5.000	-5.000	-5.000	-5.000	-5.000	-5.000	-5.000	-5.000	-5.000	-5.000	-5.000	-5.000	-5.000	-5.000	-5.000	-5.000	-5.000	-5.000	-5.000	-5.000	-5.000	-5.000	-5.000	-5.000	-5.000	-5.000	-5.000	-5.000	-5.000	-5.000	-5.000	-5.000	-5.000	-5.000	-5.000	-5.000	-5.000	-5.000	-5.000	-5.000	-5.000	-5.000	-5.000	-5.000	-5.000	-5.000	-5.000	-5.000	-5.000	-5.000	-5.000	-5.000	-5.000	-5.000	-5.000	-5.000	-5.000	-5.000	-5.000	-5.000	-5.000	-5.000	-5.000	-5.000	-5.000	-5.000	-5.000	-5.000	-5.000	-5.000	-5.000	-5.000	-5.000	-5.000	-5.000	-5.000	-5.000	-5.000	-5.000	-5.000	-5.000	-5.000	-5.000	-5.000	-5.000	-5.000	-5.000	-5.000	-5.000	-5.000	-5.000	-5.000	-5.000	-5.000	-5.000	-5.000	-5.000	-5.000	-5.000	-5.000	-5.000	-5.000	-0.000	-0.000	-0.000	-0.000	-0.000	-0.000	0.140	0.410	0.650	1.000	1.500	1.780	2.450	3.190	6.540	5.150	4.100	3.560	4.070	4.180	4.660	5.780	6.340	7.240	8.100	7.810	6.700	10.350	8.960	8.700	10.540	10.190	8.840	9.310	8.460	8.560	9.350	9.050	8.790	8.950	9.620	7.960	9.330	10.600	9.750	10.080	10.950	11.330	10.100	7.450	11.050	10.730	7.890	7.460	10.830	7.470	8.270	8.570	12.150	14.330	12.820	13.500	12.250	11.710	11.070	10.410	10.070	8.830	7.880	6.910	6.240	5.960	5.470	5.160	5.310	5.010	4.950	4.560	4.410	4.690	4.470	4.550	4.340	4.370	4.330	4.560	4.380	4.220	4.110	4.110	3.930	4.260	4.170	3.920	3.920	3.950	4.020	3.970	3.910	3.500	3.460	3.360	3.480	3.170	3.240	3.070	2.700	2.720	2.810	3.120	3.060	3.170	3.210	3.080	3.070	2.970	3.120	2.580	2.830	2.850	3.230	2.860	2.960	2.990	3.240	3.170	2.800	2.680	2.640	2.720	2.830	3.360	3.420	3.900	2.270	2.590	2.320	2.810	3.160	2.590	2.840	1.900	1.930	2.870	2.560	2.570	2.050	2.200	2.030	2.030	2.170	2.130	2.450	2.910	2.040	2.070	1.320	3.330	2.555	2.555	2.590	2.570	1.830	2.410	2.410	2.640	3.550	2.410	2.010	1.770	3.400	2.030	2.700	3.530	2.230	2.230	2.180	2.820	2.990	2.514	1.740	1.630	1.850	2.180	3.290	2.530	2.930	2.320	2.780	2.760	2.720	2.770	2.530	3.280	2.490	2.540	1.930	1.950	1.970	1.950	2.110	1.910	2.514	2.514	2.840	0.120	-0.000	2.640	2.990	3.800	2.840	2.450	3.380	2.520	2.790	2.160	2.680	2.760	2.980	2.240	2.710	3.360	2.790	2.300	2.290	2.640	3.090	3.450	2.610	4.930	4.530	4.420	4.430	3.530	3.880	4.410	4.290	4.190	4.070	4.040	3.540	2.810	2.940	4.333	4.333	1.720	1.380	0.940	0.880	0.550	0.670	0.590	0.470	0.350	0.410	0.210	0.340	0.370	0.320	0.200	0.050	0.020	0.150	0.060	-0.000	-0.000	-0.000	-0.000	-0.000	-0.000	-0.000	-0.000	-0.000	-0.000	-0.000	-0.000	-0.000	-0.000	-0.000	-0.000	-0.000	-0.000	-0.000	-0.000	-5.000	-5.000	-5.000	-5.000	-5.000	-5.000	-5.000	-5.000	-5.000	-5.000	-5.000	-5.000	-5.000	-5.000	-5.000	-5.000	-5.000	-5.000	-5.000	-5.000	-5.000	-5.000	-5.000	-5.000	-5.000	-5.000	-5.000	-5.000	-5.000	-5.000	-5.000	-5.000	-5.000	-5.000	-5.000	-5.000	-5.000	-5.000	-5.000	-5.000	-5.000	-5.000	-5.000	-5.000	-5.000	-5.000	-5.000	-5.000	-5.000	-5.000	-5.000	-5.000	-5.000	-5.000	-5.000	-5.000	-5.000	-5.000	-5.000	-5.000	-5.000	-5.000	-5.000	-5.000
-5.000	-5.000	-5.000	-5.000	-5.000	-5.000	-5.000	-5.000	-5.000	-5.000	-5.000	-5.000	-5.000	-5.000	-5.000	-5.000	-5.000	-5.000	-5.000	-5.000	-5.000	-5.000	-5.000	-5.000	-5.000	-5.000	-5.000	-5.000	-5.000	-5.000	-5.000	-5.000	-5.000	-5.000	-5.000	-5.000	-5.000	-5.000	-5.000	-5.000	-5.000	-5.000	-5.000	-5.000	-5.000	-5.000	-5.000	-5.000	-5.000	-5.000	-5.000	-5.000	-5.000	-5.000	-5.000	-5.000	-5.000	-5.000	-5.000	-5.000	-5.000	-5.000	-5.000	-5.000	-5.000	-5.000	-5.000	-5.000	-5.000	-5.000	-5.000	-5.000	-5.000	-5.000	-5.000	-5.000	-5.000	-5.000	-5.000	-5.000	-5.000	-5.000	-5.000	-5.000	-5.000	-5.000	-5.000	-5.000	-5.000	-5.000	-5.000	-5.000	-5.000	-5.000	-5.000	-5.000	-5.000	-5.000	-5.000	-5.000	-5.000	-5.000	-5.000	-5.000	-5.000	-5.000	-5.000	-5.000	-5.000	-0.000	-0.000	-0.000	-0.000	-0.000	-0.000	-0.000	0.290	0.540	0.940	1.400	1.610	2.170	2.820	4.030	5.140	5.390	3.710	4.050	4.190	4.290	5.490	6.780	8.130	8.970	10.140	5.530	8.270	10.950	9.830	11.050	9.530	9.920	8.310	8.390	7.870	8.180	7.620	7.460	8.700	8.860	8.660	9.370	10.370	9.710	9.690	10.460	11.930	10.380	7.660	8.460	10.570	9.020	7.430	10.460	7.910	9.520	12.880	14.780	14.160	13.270	14.820	11.820	11.360	10.740	11.120	9.570	9.460	8.980	7.950	7.110	6.290	5.690	5.690	5.300	5.310	4.930	4.880	5.140	4.730	4.580	4.460	4.360	4.380	4.590	4.690	4.620	4.220	4.210	4.180	4.000	4.240	3.920	4.340	4.160	4.130	4.040	4.010	3.790	4.200	3.670	3.550	3.480	3.880	3.300	3.270	3.240	3.110	2.670	3.040	3.210	3.190	3.050	3.090	2.950	2.430	3.190	3.290	3.570	3.090	2.800	3.160	3.190	3.190	3.240	2.840	2.840	2.980	2.620	2.550	2.680	2.610	2.860	3.370	3.230	3.580	2.690	2.710	2.340	2.250	2.000	1.870	3.320	2.690	2.330	2.440	2.180	2.000	2.150	2.080	2.100	2.190	2.490	2.420	1.900	1.780	3.130	1.170	2.540	2.555	2.670	2.410	1.860	2.600	2.280	2.280	2.290	4.040	1.680	1.750	1.780	2.270	3.260	3.030	2.290	3.330	2.030	2.100	2.240	2.030	4.060	3.980	2.550	1.850	2.080	3.210	3.170	2.800	3.140	2.830	2.850	3.150	2.390	2.120	2.340	2.160	2.210	2.130	2.030	2.270	2.140	1.970	2.410	2.514	2.514	3.360	1.720	0.080	-0.000	0.490	3.000	3.290	2.980	2.590	2.580	3.050	2.960	2.790	3.000	0.630	2.850	2.630	3.000	1.790	3.050	2.170	2.710	3.090	3.620	5.470	4.470	4.460	4.380	4.530	3.520	3.790	4.430	4.260	3.840	4.330	4.420	3.610	3.350	4.090	4.333	1.900	1.740	1.500	0.900	0.760	0.560	0.510	0.640	0.240	0.390	0.320	0.290	0.250	0.190	0.210	-0.000	-0.000	-0.000	0.170	-0.000	-0.000	-0.000	-0.000	-0.000	-0.000	-0.000	-0.000	-0.000	-0.000	-0.000	-0.000	-0.000	-0.000	-0.000	-0.000	-0.000	-0.000	-0.000	-0.000	-5.000	-5.000	-5.000	-5.000	-5.000	-5.000	-5.000	-5.000	-5.000	-5.000	-5.000	-5.000	-5.000	-5.000	-5.000	-5.000	-5.000	-5.000	-5.000	-5.000	-5.000	-5.000	-5.000	-5.000	-5.000	-5.000	-5.000	-5.000	-5.000	-5.000	-5.000	-5.000	-5.000	-5.000	-5.000	-5.000	-5.000	-5.000	-5.000	-5.000	-5.000	-5.000	-5.000	-5.000	-5.000	-5.000	-5.000	-5.000	-5.000	-5.000	-5.000	-5.000	-5.000	-5.000	-5.000	-5.000	-5.000	-5.000	-5.000	-5.000	-5.000	-5.000	-5.000	-5.000
-5.000	-5.000	-5.000	-5.000	-5.000	-5.000	-5.000	-5.000	-5.000	-5.000	-5.000	-5.000	-5.000	-5.000	-5.000	-5.000	-5.000	-5.000	-5.000	-5.000	-5.000	-5.000	-5.000	-5.000	-5.000	-5.000	-5.000	-5.000	-5.000	-5.000	-5.000	-5.000	-5.000	-5.000	-5.000	-5.000	-5.000	-5.000	-5.000	-5.000	-5.000	-5.000	-5.000	-5.000	-5.000	-5.000	-5.000	-5.000	-5.000	-5.000	-5.000	-5.000	-5.000	-5.000	-5.000	-5.000	-5.000	-5.000	-5.000	-5.000	-5.000	-5.000	-5.000	-5.000	-5.000	-5.000	-5.000	-5.000	-5.000	-5.000	-5.000	-5.000	-5.000	-5.000	-5.000	-5.000	-5.000	-5.000	-5.000	-5.000	-5.000	-5.000	-5.000	-5.000	-5.000	-5.000	-5.000	-5.000	-5.000	-5.000	-5.000	-5.000	-5.000	-5.000	-5.000	-5.000	-5.000	-5.000	-5.000	-5.000	-5.000	-5.000	-5.000	-5.000	-5.000	-5.000	-5.000	-5.000	-5.000	-5.000	-0.000	-0.000	-0.000	-0.000	-0.000	-0.000	0.110	0.490	0.630	1.140	1.470	1.810	2.560	3.280	6.600	5.990	5.190	4.360	4.200	4.360	5.140	6.790	7.080	9.890	8.630	5.570	6.860	10.890	9.000	10.920	9.600	9.940	9.340	7.380	7.070	7.710	7.570	7.060	8.240	8.700	8.790	8.670	8.570	8.960	10.900	11.650	10.740	11.620	8.720	8.150	9.470	10.300	8.710	11.700	11.260	13.000	13.590	14.270	14.770	14.450	14.360	13.550	11.270	10.740	10.110	9.160	9.400	9.890	9.950	8.260	7.370	6.540	6.070	5.780	5.340	5.460	5.070	5.630	5.380	4.830	4.610	4.570	4.520	4.800	4.830	4.660	4.610	4.000	4.240	4.060	4.060	4.140	4.180	4.180	4.430	4.020	4.070	4.310	3.760	3.540	3.560	3.730	3.480	3.370	3.330	3.290	3.220	3.160	2.980	2.710	3.030	2.980	2.480	2.990	3.370	5.010	3.540	4.280	2.060	2.460	3.590	2.930	2.890	2.800	2.810	2.810	3.090	2.760	2.750	2.730	2.770	2.760	2.690	3.030	3.250	3.710	2.270	2.020	2.650	1.970	2.100	2.730	2.920	2.310	2.380	2.070	2.070	2.110	2.220	2.040	2.390	2.380	2.600	1.670	1.910	1.790	2.100	2.900	2.555	2.460	2.190	1.790	2.700	3.870	2.340	2.620	2.520	2.260	2.790	1.690	1.850	1.920	3.710	2.520	2.770	2.530	3.210	1.890	1.950	2.050	1.890	1.950	2.420	2.610	3.570	2.440	3.280	2.870	2.900	2.720	2.390	2.620	2.450	2.590	2.120	2.370	2.230	2.100	2.050	2.260	2.710	1.920	2.090	2.514	1.860	2.620	3.260	2.200	0.800	0.180	-0.000	2.400	3.510	3.260	2.720	3.250	2.790	3.150	2.960	1.560	2.980	3.180	3.985	3.510	2.530	3.985	3.310	3.570	2.530	4.710	4.390	4.820	4.670	4.490	4.070	3.810	4.630	4.290	3.930	4.170	4.200	4.090	4.170	4.333	4.333	1.790	1.730	1.180	0.640	0.620	0.350	0.470	0.670	0.420	0.290	0.300	0.300	0.330	0.150	0.140	-0.000	0.020	0.030	-0.000	-0.000	-0.000	-0.000	-0.000	-0.000	-0.000	-0.000	-0.000	-0.000	-0.000	-0.000	-0.000	-0.000	-0.000	-0.000	-0.000	-0.000	-0.000	-0.000	-5.000	-5.000	-5.000	-5.000	-5.000	-5.000	-5.000	-5.000	-5.000	-5.000	-5.000	-5.000	-5.000	-5.000	-5.000	-5.000	-5.000	-5.000	-5.000	-5.000	-5.000	-5.000	-5.000	-5.000	-5.000	-5.000	-5.000	-5.000	-5.000	-5.000	-5.000	-5.000	-5.000	-5.000	-5.000	-5.000	-5.000	-5.000	-5.000	-5.000	-5.000	-5.000	-5.000	-5.000	-5.000	-5.000	-5.000	-5.000	-5.000	-5.000	-5.000	-5.000	-5.000	-5.000	-5.000	-5.000	-5.000	-5.000	-5.000	-5.000	-5.000	-5.000	-5.000	-5.000
-5.000	-5.000	-5.000	-5.000	-5.000	-5.000	-5.000	-5.000	-5.000	-5.000	-5.000	-5.000	-5.000	-5.000	-5.000	-5.000	-5.000	-5.000	-5.000	-5.000	-5.000	-5.000	-5.000	-5.000	-5.000	-5.000	-5.000	-5.000	-5.000	-5.000	-5.000	-5.000	-5.000	-5.000	-5.000	-5.000	-5.000	-5.000	-5.000	-5.000	-5.000	-5.000	-5.000	-5.000	-5.000	-5.000	-5.000	-5.000	-5.000	-5.000	-5.000	-5.000	-5.000	-5.000	-5.000	-5.000	-5.000	-5.000	-5.000	-5.000	-5.000	-5.000	-5.000	-5.000	-5.000	-5.000	-5.000	-5.000	-5.000	-5.000	-5.000	-5.000	-5.000	-5.000	-5.000	-5.000	-5.000	-5.000	-5.000	-5.000	-5.000	-5.000	-5.000	-5.000	-5.000	-5.000	-5.000	-5.000	-5.000	-5.000	-5.000	-5.000	-5.000	-5.000	-5.000	-5.000	-5.000	-5.000	-5.000	-5.000	-5.000	-5.000	-5.000	-5.000	-5.000	-5.000	-5.000	-5.000	-5.000	-5.000	-0.000	-0.000	-0.000	-0.000	-0.000	-0.000	0.070	0.230	0.510	0.930	1.330	1.870	2.360	3.180	5.450	7.110	5.500	4.730	3.590	4.270	5.270	7.080	7.810	8.040	8.420	5.870	6.400	8.670	9.600	11.920	9.170	8.750	9.390	7.490	7.000	7.180	7.740	7.040	6.760	9.360	8.610	8.350	8.990	8.120	10.220	11.160	11.760	12.070	10.330	9.540	11.380	11.450	12.610	11.690	11.220	10.910	11.030	12.700	11.550	16.130	15.530	14.140	11.350	10.490	10.030	10.270	10.240	10.010	9.330	9.150	8.770	7.940	7.190	6.160	5.900	5.460	5.840	5.890	5.860	5.600	4.870	5.080	4.790	4.590	4.870	4.620	4.630	4.270	3.990	4.000	4.000	4.490	4.410	4.110	4.030	4.090	4.240	4.420	3.880	3.910	3.930	3.550	3.530	3.560	4.100	3.400	3.660	3.250	2.940	2.910	2.880	2.970	3.650	4.390	3.660	3.700	4.390	2.450	2.080	3.530	3.320	2.500	3.160	2.740	2.950	3.030	2.890	2.900	2.770	2.880	2.810	2.820	2.840	2.730	3.100	2.960	2.680	2.810	1.890	1.960	3.250	2.460	2.170	2.370	2.310	2.040	2.340	2.220	2.280	2.190	2.180	2.510	2.520	2.840	1.900	1.880	4.330	1.110	2.555	2.555	2.400	1.890	2.490	2.360	2.230	3.130	2.450	2.230	2.480	3.890	3.200	1.740	1.800	1.880	3.690	2.830	2.520	1.850	3.070	1.950	2.050	2.600	2.140	2.970	2.290	2.900	2.510	2.450	2.860	3.020	2.390	3.130	3.010	2.440	2.350	2.170	2.730	2.840	1.750	1.990	2.320	1.980	2.680	2.514	2.514	2.514	2.514	1.220	3.120	2.360	0.510	-0.000	0.220	0.640	2.710	1.210	3.020	3.040	2.870	0.530	2.790	2.810	3.985	3.740	3.985	3.985	2.990	2.290	2.690	2.180	4.170	5.460	4.890	4.690	4.600	3.680	3.720	4.180	4.300	3.990	4.510	4.320	4.210	4.360	4.333	4.333	0.950	0.930	0.940	0.410	0.430	0.440	0.380	0.300	0.380	0.310	0.030	0.230	0.140	0.030	-0.000	0.050	-0.000	-0.000	-0.000	-0.000	-0.000	-0.000	-0.000	-0.000	-0.000	-0.000	-0.000	-0.000	-0.000	-0.000	-0.000	-0.000	-0.000	-0.000	-0.000	-0.000	-5.000	-5.000	-5.000	-5.000	-5.000	-5.000	-5.000	-5.000	-5.000	-5.000	-5.000	-5.000	-5.000	-5.000	-5.000	-5.000	-5.000	-5.000	-5.000	-5.000	-5.000	-5.000	-5.000	-5.000	-5.000	-5.000	-5.000	-5.000	-5.000	-5.000	-5.000	-5.000	-5.000	-5.000	-5.000	-5.000	-5.000	-5.000	-5.000	-5.000	-5.000	-5.000	-5.000	-5.000	-5.000	-5.000	-5.000	-5.000	-5.000	-5.000	-5.000	-5.000	-5.000	-5.000	-5.000	-5.000	-5.000	-5.000	-5.000	-5.000	-5.000	-5.000	-5.000	-5.000	-5.000
-5.000	-5.000	-5.000	-5.000	-5.000	-5.000	-5.000	-5.000	-5.000	-5.000	-5.000	-5.000	-5.000	-5.000	-5.000	-5.000	-5.000	-5.000	-5.000	-5.000	-5.000	-5.000	-5.000	-5.000	-5.000	-5.000	-5.000	-5.000	-5.000	-5.000	-5.000	-5.000	-5.000	-5.000	-5.000	-5.000	-5.000	-5.000	-5.000	-5.000	-5.000	-5.000	-5.000	-5.000	-5.000	-5.000	-5.000	-5.000	-5.000	-5.000	-5.000	-5.000	-5.000	-5.000	-5.000	-5.000	-5.000	-5.000	-5.000	-5.000	-5.000	-5.000	-5.000	-5.000	-5.000	-5.000	-5.000	-5.000	-5.000	-5.000	-5.000	-5.000	-5.000	-5.000	-5.000	-5.000	-5.000	-5.000	-5.000	-5.000	-5.000	-5.000	-5.000	-5.000	-5.000	-5.000	-5.000	-5.000	-5.000	-5.000	-5.000	-5.000	-5.000	-5.000	-5.000	-5.000	-5.000	-5.000	-5.000	-5.000	-5.000	-5.000	-5.000	-5.000	-5.000	-5.000	-5.000	-5.000	-5.000	-5.000	-0.000	-0.000	-0.000	-0.000	-0.000	-0.000	-0.000	0.060	0.150	0.740	1.250	1.810	2.280	3.040	5.590	5.400	4.080	3.860	3.820	4.150	5.270	7.110	7.680	8.380	8.610	6.570	6.250	7.250	9.680	9.090	9.060	7.850	7.980	8.070	7.200	6.690	8.550	8.760	8.550	9.490	9.520	8.500	8.500	9.890	9.810	10.810	10.990	11.940	11.350	9.440	8.630	10.160	10.810	9.430	7.830	7.510	8.860	10.200	11.730	16.100	15.750	12.500	11.050	10.420	10.550	10.370	10.820	9.840	8.420	8.050	8.510	8.570	9.870	8.500	8.800	6.880	6.270	6.870	6.270	5.410	5.630	5.570	4.910	5.520	5.220	4.940	4.540	4.350	4.230	4.290	4.420	4.300	4.430	4.520	4.260	3.950	4.670	4.340	3.770	4.020	3.850	3.700	3.720	4.070	3.910	3.430	3.530	3.960	3.170	3.040	3.070	2.740	2.510	4.590	3.160	4.110	3.430	2.180	2.220	2.150	3.170	3.660	2.970	3.010	2.970	2.980	3.200	2.940	2.990	3.310	3.000	3.360	2.860	2.730	3.220	2.650	3.400	2.610	2.440	2.990	2.380	2.130	2.250	2.070	2.260	2.070	2.070	2.490	2.450	2.280	2.310	2.540	2.610	2.610	2.970	1.780	3.140	1.000	3.230	2.555	2.240	1.910	2.600	2.440	1.980	2.540	3.930	2.290	1.810	2.040	1.670	4.180	1.910	1.770	1.840	2.270	2.040	1.930	3.370	2.000	2.860	2.450	2.320	3.320	2.020	2.170	2.740	2.680	2.400	3.010	3.290	2.440	2.420	2.720	3.020	2.040	2.960	2.100	2.160	2.820	1.940	1.770	1.940	2.490	2.430	2.514	2.514	2.514	2.514	4.259	4.259	4.259	4.259	0.110	-0.000	0.180	-0.000	-0.000	0.360	0.260	0.900	0.050	3.985	3.985	3.985	3.985	3.190	3.480	3.350	3.830	3.550	5.100	4.550	4.500	4.370	4.620	3.500	3.680	4.140	4.290	4.140	4.530	4.420	4.300	4.490	4.333	0.880	0.560	0.570	0.400	0.440	0.400	0.420	0.360	0.260	0.390	0.320	0.290	0.040	-0.000	-0.000	0.030	-0.000	-0.000	-0.000	-0.000	-0.000	-0.000	-0.000	-0.000	-0.000	-0.000	-0.000	-0.000	-0.000	-0.000	-0.000	-0.000	-0.000	-0.000	-0.000	-0.000	-5.000	-5.000	-5.000	-5.000	-5.000	-5.000	-5.000	-5.000	-5.000	-5.000	-5.000	-5.000	-5.000	-5.000	-5.000	-5.000	-5.000	-5.000	-5.000	-5.000	-5.000	-5.000	-5.000	-5.000	-5.000	-5.000	-5.000	-5.000	-5.000	-5.000	-5.000	-5.000	-5.000	-5.000	-5.000	-5.000	-5.000	-5.000	-5.000	-5.000	-5.000	-5.000	-5.000	-5.000	-5.000	-5.000	-5.000	-5.000	-5.000	-5.000	-5.000	-5.000	-5.000	-5.000	-5.000	-5.000	-5.000	-5.000	-5.000	-5.000	-5.000	-5.000	-5.000	-5.000	-5.000
-5.000	-5.000	-5.000	-5.000	-5.000	-5.000	-5.000	-5.000	-5.000	-5.000	-5.000	-5.000	-5.000	-5.000	-5.000	-5.000	-5.000	-5.000	-5.000	-5.000	-5.000	-5.000	-5.000	-5.000	-5.000	-5.000	-5.000	-5.000	-5.000	-5.000	-5.000	-5.000	-5.000	-5.000	-5.000	-5.000	-5.000	-5.000	-5.000	-5.000	-5.000	-5.000	-5.000	-5.000	-5.000	-5.000	-5.000	-5.000	-5.000	-5.000	-5.000	-5.000	-5.000	-5.000	-5.000	-5.000	-5.000	-5.000	-5.000	-5.000	-5.000	-5.000	-5.000	-5.000	-5.000	-5.000	-5.000	-5.000	-5.000	-5.000	-5.000	-5.000	-5.000	-5.000	-5.000	-5.000	-5.000	-5.000	-5.000	-5.000	-5.000	-5.000	-5.000	-5.000	-5.000	-5.000	-5.000	-5.000	-5.000	-5.000	-5.000	-5.000	-5.000	-5.000	-5.000	-5.000	-5.000	-5.000	-5.000	-5.000	-5.000	-5.000	-5.000	-5.000	-5.000	-5.000	-5.000	-5.000	-5.000	-5.000	-5.000	-0.000	-0.000	-0.000	-0.000	-0.000	-0.000	-0.000	-0.000	0.450	1.150	1.730	2.300	2.900	5.420	6.760	4.210	4.960	4.210	4.250	4.410	6.500	6.920	7.650	8.000	6.130	4.780	7.190	11.000	8.170	10.710	9.920	9.220	7.630	6.380	7.900	8.870	8.560	9.150	10.200	8.490	8.680	9.300	9.840	9.250	9.980	9.550	11.750	10.260	7.720	8.110	9.940	10.060	7.620	7.230	7.050	7.770	10.300	12.270	14.560	14.890	11.970	10.410	10.190	10.030	10.250	9.820	8.360	7.770	7.810	7.770	8.200	9.860	9.890	9.510	8.790	7.280	6.720	6.060	5.720	5.760	5.780	5.830	5.350	5.090	5.050	4.730	4.660	4.660	4.410	4.290	4.190	4.260	4.360	4.080	3.910	4.410	3.880	4.120	4.480	3.920	3.980	3.910	4.090	3.680	3.660	3.530	3.730	3.360	3.090	3.070	3.270	2.430	3.280	3.410	4.540	2.020	2.240	2.340	2.150	1.970	1.950	3.110	3.040	3.090	2.850	3.030	3.000	3.280	3.230	3.100	2.970	2.620	3.290	2.970	2.650	3.950	2.560	2.490	2.360	2.230	2.390	2.090	2.040	2.090	2.110	2.150	2.090	2.350	2.260	2.120	2.060	2.610	2.410	3.140	1.870	2.200	1.710	3.620	2.555	2.555	1.910	2.670	2.780	2.510	2.510	2.270	2.460	2.980	1.720	1.750	1.830	3.480	3.820	1.990	1.810	1.810	3.970	2.170	2.980	2.370	2.290	3.840	3.640	3.180	2.020	2.260	2.740	2.830	3.230	2.260	2.510	2.500	3.030	3.210	2.560	2.440	2.930	2.520	2.070	2.290	2.660	1.940	1.980	2.340	2.514	2.514	2.514	3.210	2.514	2.040	2.310	4.259	4.259	4.259	4.259	4.259	0.640	-0.000	-0.000	0.250	0.130	0.010	0.100	0.020	3.985	3.985	3.540	3.390	2.900	3.330	3.310	4.850	4.540	4.530	4.980	4.790	3.360	3.600	4.180	4.080	4.280	4.450	4.300	3.660	4.333	0.940	0.580	0.410	0.460	0.370	0.370	0.350	0.330	0.270	0.280	0.360	0.250	0.170	0.120	0.090	0.090	0.050	-0.000	-0.000	-0.000	-0.000	-0.000	-0.000	-0.000	-0.000	-0.000	-0.000	-0.000	-0.000	-0.000	-0.000	-0.000	-0.000	-0.000	-0.000	-0.000	-5.000	-5.000	-5.000	-5.000	-5.000	-5.000	-5.000	-5.000	-5.000	-5.000	-5.000	-5.000	-5.000	-5.000	-5.000	-5.000	-5.000	-5.000	-5.000	-5.000	-5.000	-5.000	-5.000	-5.000	-5.000	-5.000	-5.000	-5.000	-5.000	-5.000	-5.000	-5.000	-5.000	-5.000	-5.000	-5.000	-5.000	-5.000	-5.000	-5.000	-5.000	-5.000	-5.000	-5.000	-5.000	-5.000	-5.000	-5.000	-5.000	-5.000	-5.000	-5.000	-5.000	-5.000	-5.000	-5.000	-5.000	-5.000	-5.000	-5.000	-5.000	-5.000	-5.000	-5.000	-5.000
-5.000	-5.000	-5.000	-5.000	-5.000	-5.000	-5.000	-5.000	-5.000	-5.000	-5.000	-5.000	-5.000	-5.000	-5.000	-5.000	-5.000	-5.000	-5.000	-5.000	-5.000	-5.000	-5.000	-5.000	-5.000	-5.000	-5.000	-5.000	-5.000	-5.000	-5.000	-5.000	-5.000	-5.000	-5.000	-5.000	-5.000	-5.000	-5.000	-5.000	-5.000	-5.000	-5.000	-5.000	-5.000	-5.000	-5.000	-5.000	-5.000	-5.000	-5.000	-5.000	-5.000	-5.000	-5.000	-5.000	-5.000	-5.000	-5.000	-5.000	-5.000	-5.000	-5.000	-5.000	-5.000	-5.000	-5.000	-5.000	-5.000	-5.000	-5.000	-5.000	-5.000	-5.000	-5.000	-5.000	-5.000	-5.000	-5.000	-5.000	-5.000	-5.000	-5.000	-5.000	-5.000	-5.000	-5.000	-5.000	-5.000	-5.000	-5.000	-5.000	-5.000	-5.000	-5.000	-5.000	-5.000	-5.000	-5.000	-5.000	-5.000	-5.000	-5.000	-5.000	-5.000	-5.000	-5.000	-5.000	-5.000	-5.000	-5.000	-0.000	-0.000	-0.000	-0.000	-0.000	-0.000	-0.000	-0.000	0.200	1.070	1.720	2.200	2.780	3.590	5.490	4.990	5.410	3.920	4.120	5.280	6.510	6.820	7.120	7.760	5.630	4.600	5.780	9.050	9.080	9.130	10.320	8.470	8.400	6.840	6.950	6.260	7.760	7.270	8.300	8.380	7.910	8.140	8.710	9.240	9.580	10.030	10.480	10.710	7.700	8.110	9.130	8.700	8.390	7.390	7.370	7.860	10.320	11.490	11.070	12.070	11.470	10.430	10.280	10.350	10.670	9.240	8.320	7.760	7.510	7.440	9.100	9.010	10.010	9.870	9.630	9.520	7.960	6.820	6.180	6.010	5.860	6.470	6.040	5.430	5.300	5.130	4.910	4.930	5.200	4.470	4.580	4.390	4.590	4.210	4.580	4.070	3.990	3.990	4.020	4.160	4.440	4.050	3.960	3.980	3.790	3.940	3.810	3.350	3.120	3.050	2.890	2.490	2.820	3.460	3.650	1.940	2.260	3.040	1.760	1.880	1.940	2.460	3.270	4.040	2.920	3.060	3.000	3.180	3.030	2.980	2.680	2.850	3.550	2.560	2.660	2.480	2.570	2.570	2.360	2.280	2.160	2.090	2.210	2.100	1.910	1.980	1.970	1.950	2.540	2.140	2.430	2.570	2.560	2.660	1.650	2.050	1.910	1.580	2.970	2.555	2.500	2.340	2.500	2.290	2.470	2.610	2.420	3.120	3.300	1.770	1.860	1.930	1.710	3.180	2.750	2.090	3.060	1.760	1.880	2.510	3.110	2.750	2.510	3.520	3.110	2.150	2.500	3.560	2.360	3.870	2.760	2.670	3.350	1.960	2.660	2.980	3.730	3.000	3.220	1.990	2.300	2.210	2.290	2.820	2.514	2.514	2.514	2.460	2.780	2.480	2.320	2.210	2.050	2.540	1.790	4.259	4.259	4.259	4.259	0.840	1.500	0.170	-5.000	-5.000	-5.000	3.985	3.985	3.330	3.985	3.985	3.985	3.490	3.270	3.550	4.760	4.490	3.990	3.400	3.970	4.400	4.410	4.450	3.750	3.630	5.204	1.510	0.790	0.430	0.470	0.250	0.320	0.330	0.230	0.350	0.300	0.130	0.240	0.190	0.160	0.130	0.060	-0.000	-0.000	-0.000	0.020	-0.000	-0.000	-0.000	-0.000	-0.000	-0.000	-0.000	-0.000	-0.000	-0.000	-0.000	-0.000	-0.000	-0.000	-0.000	-0.000	-5.000	-5.000	-5.000	-5.000	-5.000	-5.000	-5.000	-5.000	-5.000	-5.000	-5.000	-5.000	-5.000	-5.000	-5.000	-5.000	-5.000	-5.000	-5.000	-5.000	-5.000	-5.000	-5.000	-5.000	-5.000	-5.000	-5.000	-5.000	-5.000	-5.000	-5.000	-5.000	-5.000	-5.000	-5.000	-5.000	-5.000	-5.000	-5.000	-5.000	-5.000	-5.000	-5.000	-5.000	-5.000	-5.000	-5.000	-5.000	-5.000	-5.000	-5.000	-5.000	-5.000	-5.000	-5.000	-5.000	-5.000	-5.000	-5.000	-5.000	-5.000	-5.000	-5.000	-5.000	-5.000
-5.000	-5.000	-5.000	-5.000	-5.000	-5.000	-5.000	-5.000	-5.000	-5.000	-5.000	-5.000	-5.000	-5.000	-5.000	-5.000	-5.000	-5.000	-5.000	-5.000	-5.000	-5.000	-5.000	-5.000	-5.000	-5.000	-5.000	-5.000	-5.000	-5.000	-5.000	-5.000	-5.000	-5.000	-5.000	-5.000	-5.000	-5.000	-5.000	-5.000	-5.000	-5.000	-5.000	-5.000	-5.000	-5.000	-5.000	-5.000	-5.000	-5.000	-5.000	-5.000	-5.000	-5.000	-5.000	-5.000	-5.000	-5.000	-5.000	-5.000	-5.000	-5.000	-5.000	-5.000	-5.000	-5.000	-5.000	-5.000	-5.000	-5.000	-5.000	-5.000	-5.000	-5.000	-5.000	-5.000	-5.000	-5.000	-5.000	-5.000	-5.000	-5.000	-5.000	-5.000	-5.000	-5.000	-5.000	-5.000	-5.000	-5.000	-5.000	-5.000	-5.000	-5.000	-5.000	-5.000	-5.000	-5.000	-5.000	-5.000	-5.000	-5.000	-5.000	-5.000	-5.000	-5.000	-5.000	-5.000	-5.000	-5.000	-5.000	-5.000	-0.000	-0.000	-0.000	-0.000	-5.000	-0.000	-0.000	0.430	1.330	1.810	2.270	2.560	3.380	6.080	5.230	4.860	4.620	4.620	5.990	6.430	6.890	6.980	7.150	6.660	5.940	6.180	8.670	9.640	8.480	8.970	10.010	8.370	7.100	6.500	6.030	6.400	7.160	8.740	8.310	8.760	9.050	9.110	9.200	9.540	9.780	9.970	11.230	7.700	7.710	9.380	8.370	8.450	8.100	9.670	10.250	11.580	10.250	9.870	9.690	11.070	10.780	10.360	10.200	9.910	9.570	8.200	7.680	7.540	8.250	9.670	10.010	9.950	10.180	10.320	9.650	8.290	7.870	7.220	6.550	6.500	6.060	5.900	5.780	6.110	5.750	5.140	5.700	5.290	5.090	4.760	4.940	4.820	4.580	5.210	3.960	4.180	3.970	3.820	4.120	4.160	3.960	3.980	3.940	4.130	4.040	3.570	3.420	3.390	3.300	3.490	2.720	3.070	3.490	1.690	1.770	2.000	3.110	1.790	1.840	3.260	2.310	3.580	3.800	3.380	3.100	3.200	3.150	3.090	2.920	2.680	2.750	3.180	2.650	2.130	2.870	2.500	2.590	2.500	2.130	2.360	2.380	2.240	2.140	2.220	1.980	1.960	1.940	1.860	1.970	2.220	2.730	2.550	2.330	3.000	1.910	3.190	1.080	3.350	2.555	2.360	2.490	2.970	2.510	2.330	2.390	2.220	2.200	2.560	2.950	3.550	1.850	1.750	1.690	2.270	3.450	1.910	2.850	2.700	2.380	2.200	3.210	2.680	2.450	2.240	2.670	2.170	2.210	3.510	2.350	3.620	2.590	2.030	3.170	4.070	4.240	4.070	2.210	2.350	2.590	2.810	2.960	2.700	1.970	2.514	2.514	2.514	1.950	2.610	2.720	2.970	2.540	2.390	1.630	2.170	2.380	1.950	2.220	4.259	4.259	4.259	2.740	2.590	1.720	-5.000	-5.000	3.985	3.985	3.985	3.985	3.985	3.420	2.070	2.470	3.030	4.850	4.410	4.640	4.020	4.020	4.710	4.720	3.960	4.020	5.204	1.590	1.010	0.670	0.370	0.430	0.350	0.390	0.200	0.290	0.220	0.230	0.210	0.130	0.370	0.150	0.050	0.110	0.010	0.020	-0.000	-0.000	-0.000	-0.000	-0.000	-0.000	-0.000	-0.000	-0.000	-0.000	-0.000	-0.000	-0.000	-0.000	-0.000	-0.000	-0.000	-5.000	-5.000	-5.000	-5.000	-5.000	-5.000	-5.000	-5.000	-5.000	-5.000	-5.000	-5.000	-5.000	-5.000	-5.000	-5.000	-5.000	-5.000	-5.000	-5.000	-5.000	-5.000	-5.000	-5.000	-5.000	-5.000	-5.000	-5.000	-5.000	-5.000	-5.000	-5.000	-5.000	-5.000	-5.000	-5.000	-5.000	-5.000	-5.000	-5.000	-5.000	-5.000	-5.000	-5.000	-5.000	-5.000	-5.000	-5.000	-5.000	-5.000	-5.000	-5.000	-5.000	-5.000	-5.000	-5.000	-5.000	-5.000	-5.000	-5.000	-5.000	-5.000	-5.000	-5.000	-5.000
-5.000	-5.000	-5.000	-5.000	-5.000	-5.000	-5.000	-5.000	-5.000	-5.000	-5.000	-5.000	-5.000	-5.000	-5.000	-5.000	-5.000	-5.000	-5.000	-5.000	-5.000	-5.000	-5.000	-5.000	-5.000	-5.000	-5.000	-5.000	-5.000	-5.000	-5.000	-5.000	-5.000	-5.000	-5.000	-5.000	-5.000	-5.000	-5.000	-5.000	-5.000	-5.000	-5.000	-5.000	-5.000	-5.000	-5.000	-5.000	-5.000	-5.000	-5.000	-5.000	-5.000	-5.000	-5.000	-5.000	-5.000	-5.000	-5.000	-5.000	-5.000	-5.000	-5.000	-5.000	-5.000	-5.000	-5.000	-5.000	-5.000	-5.000	-5.000	-5.000	-5.000	-5.000	-5.000	-5.000	-5.000	-5.000	-5.000	-5.000	-5.000	-5.000	-5.000	-5.000	-5.000	-5.000	-5.000	-5.000	-5.000	-5.000	-5.000	-5.000	-5.000	-5.000	-5.000	-5.000	-5.000	-5.000	-5.000	-5.000	-5.000	-5.000	-5.000	-5.000	-5.000	-5.000	-5.000	-5.000	-5.000	-5.000	-5.000	-5.000	-5.000	-5.000	-5.000	-5.000	-5.000	-0.000	0.010	0.700	1.300	1.810	2.130	2.540	3.150	6.710	5.550	4.350	5.080	4.100	4.670	5.900	6.340	7.220	7.370	7.520	4.860	5.100	6.090	9.870	8.260	8.290	8.470	9.100	8.360	7.550	8.650	6.890	7.290	8.680	10.250	8.530	9.040	8.730	8.980	9.560	10.050	10.990	11.410	8.830	9.060	9.220	9.190	8.730	10.470	9.610	9.040	9.320	9.410	7.840	9.700	9.970	10.450	10.670	10.620	10.450	10.680	9.470	8.840	8.550	10.080	10.430	10.660	9.830	9.910	9.290	8.460	7.950	7.780	7.660	7.100	6.850	6.650	6.900	6.090	5.750	5.470	5.820	5.810	5.350	5.240	5.060	5.160	4.740	5.290	5.070	4.110	4.370	4.140	4.200	4.280	4.540	4.290	4.470	4.350	4.250	3.830	3.630	3.400	3.360	3.200	3.660	3.420	3.430	2.210	2.130	1.870	3.040	2.960	1.710	1.870	2.970	2.090	3.730	3.730	3.570	3.180	3.110	2.870	2.600	1.960	3.220	3.280	3.470	2.610	2.780	1.640	1.820	2.670	2.470	2.270	2.260	2.300	2.430	2.010	1.980	1.960	1.950	1.940	1.890	1.990	2.810	2.350	2.630	2.480	2.710	2.410	2.290	2.330	2.340	2.555	2.555	2.180	2.750	2.380	2.740	2.540	2.530	2.610	2.650	2.100	2.400	2.880	3.120	1.890	2.250	2.940	2.880	2.780	3.790	4.200	2.210	2.290	2.180	3.060	3.130	3.110	2.470	3.270	2.230	2.790	2.540	3.410	4.040	4.320	3.220	1.720	1.790	2.160	2.340	3.900	2.850	2.820	2.680	2.390	2.514	2.514	2.514	1.740	2.390	2.630	2.410	2.480	2.870	2.870	2.580	2.370	1.970	1.930	1.860	2.220	4.259	4.259	2.440	2.540	1.390	-5.000	3.985	3.985	-5.000	3.985	3.985	2.000	1.740	1.900	2.200	2.650	4.510	4.470	4.490	4.900	4.180	5.170	4.540	5.204	5.204	1.690	1.170	0.870	0.430	0.260	0.270	0.280	0.300	0.220	0.210	0.300	0.210	0.180	-0.000	0.370	0.160	-0.000	-0.000	-0.000	-0.000	-0.000	-0.000	-0.000	-0.000	-0.000	-0.000	-0.000	-0.000	-0.000	-0.000	-0.000	-0.000	-0.000	-0.000	-0.000	-5.000	-5.000	-5.000	-5.000	-5.000	-5.000	-5.000	-5.000	-5.000	-5.000	-5.000	-5.000	-5.000	-5.000	-5.000	-5.000	-5.000	-5.000	-5.000	-5.000	-5.000	-5.000	-5.000	-5.000	-5.000	-5.000	-5.000	-5.000	-5.000	-5.000	-5.000	-5.000	-5.000	-5.000	-5.000	-5.000	-5.000	-5.000	-5.000	-5.000	-5.000	-5.000	-5.000	-5.000	-5.000	-5.000	-5.000	-5.000	-5.000	-5.000	-5.000	-5.000	-5.000	-5.000	-5.000	-5.000	-5.000	-5.000	-5.000	-5.000	-5.000	-5.000	-5.000	-5.000	-5.000	-5.000
-5.000	-5.000	-5.000	-5.000	-5.000	-5.000	-5.000	-5.000	-5.000	-5.000	-5.000	-5.000	-5.000	-5.000	-5.000	-5.000	-5.000	-5.000	-5.000	-5.000	-5.000	-5.000	-5.000	-5.000	-5.000	-5.000	-5.000	-5.000	-5.000	-5.000	-5.000	-5.000	-5.000	-5.000	-5.000	-5.000	-5.000	-5.000	-5.000	-5.000	-5.000	-5.000	-5.000	-5.000	-5.000	-5.000	-5.000	-5.000	-5.000	-5.000	-5.000	-5.000	-5.000	-5.000	-5.000	-5.000	-5.000	-5.000	-5.000	-5.000	-5.000	-5.000	-5.000	-5.000	-5.000	-5.000	-5.000	-5.000	-5.000	-5.000	-5.000	-5.000	-5.000	-5.000	-5.000	-5.000	-5.000	-5.000	-5.000	-5.000	-5.000	-5.000	-5.000	-5.000	-5.000	-5.000	-5.000	-5.000	-5.000	-5.000	-5.000	-5.000	-5.000	-5.000	-5.000	-5.000	-5.000	-5.000	-5.000	-5.000	-5.000	-5.000	-5.000	-5.000	-5.000	-5.000	-5.000	-5.000	-5.000	-5.000	-5.000	-5.000	-5.000	-0.000	-5.000	-5.000	-0.000	-0.000	0.030	0.740	1.310	1.880	2.050	2.330	3.020	5.220	5.160	4.790	4.180	3.530	4.810	6.380	7.400	7.280	7.570	5.840	4.930	5.220	5.010	9.250	7.620	7.060	6.820	7.770	7.170	7.790	8.940	8.170	7.040	10.030	9.240	8.470	7.390	8.300	10.400	9.080	10.040	11.230	10.490	10.240	9.600	10.690	8.020	9.100	9.460	8.880	10.210	8.530	9.260	10.020	10.790	10.650	11.660	10.050	10.350	10.250	10.420	8.520	8.780	8.790	8.480	8.120	8.140	9.130	10.020	8.530	8.370	8.280	7.940	7.610	6.980	7.180	7.170	7.150	7.030	6.090	6.060	5.760	5.790	5.750	5.870	6.020	5.850	6.250	5.790	5.580	4.530	4.430	4.390	4.340	4.390	4.290	4.670	4.650	4.620	4.370	4.180	3.880	3.570	3.610	3.060	3.380	3.820	3.590	2.600	2.100	2.830	2.210	2.270	1.940	2.030	3.260	2.640	3.900	3.590	3.680	3.670	3.070	2.790	2.700	2.920	3.400	3.270	2.610	3.070	1.330	3.640	1.610	1.750	3.850	2.440	2.300	2.350	2.240	2.190	2.300	1.920	1.940	1.960	1.890	2.270	2.740	3.020	2.700	2.950	2.890	2.810	2.360	2.470	2.770	1.250	2.555	2.555	2.555	2.555	2.555	2.380	2.270	2.390	2.210	2.100	3.000	1.880	2.270	3.110	3.430	2.220	2.000	2.780	2.870	2.510	2.570	2.410	2.300	2.050	2.940	2.690	3.490	3.450	2.230	2.280	2.540	2.410	3.240	3.050	2.830	2.460	3.480	4.390	4.110	3.720	2.920	2.310	2.470	2.170	2.514	2.514	1.980	1.740	2.870	2.520	2.570	2.450	3.030	2.550	2.130	2.880	2.940	2.400	1.940	1.770	1.960	4.259	4.259	2.330	1.710	0.360	-5.000	-5.000	-0.000	2.180	3.985	3.985	2.000	1.820	1.990	2.270	3.440	4.520	4.620	4.410	4.740	4.510	5.330	5.204	4.020	1.530	0.890	0.820	0.680	0.370	0.180	0.120	0.220	0.300	0.260	0.270	0.260	0.150	0.150	0.090	0.110	-0.000	-0.000	-0.000	-0.000	-0.000	-0.000	-0.000	-0.000	-0.000	-0.000	-0.000	-0.000	-0.000	-0.000	-0.000	-0.000	-0.000	-0.000	-0.000	-5.000	-5.000	-5.000	-5.000	-5.000	-5.000	-5.000	-5.000	-5.000	-5.000	-5.000	-5.000	-5.000	-5.000	-5.000	-5.000	-5.000	-5.000	-5.000	-5.000	-5.000	-5.000	-5.000	-5.000	-5.000	-5.000	-5.000	-5.000	-5.000	-5.000	-5.000	-5.000	-5.000	-5.000	-5.000	-5.000	-5.000	-5.000	-5.000	-5.000	-5.000	-5.000	-5.000	-5.000	-5.000	-5.000	-5.000	-5.000	-5.000	-5.000	-5.000	-5.000	-5.000	-5.000	-5.000	-5.000	-5.000	-5.000	-5.000	-5.000	-5.000	-5.000	-5.000	-5.000	-5.000	-5.000
-5.000	-5.000	-5.000	-5.000	-5.000	-5.000	-5.000	-5.000	-5.000	-5.000	-5.000	-5.000	-5.000	-5.000	-5.000	-5.000	-5.000	-5.000	-5.000	-5.000	-5.000	-5.000	-5.000	-5.000	-5.000	-5.000	-5.000	-5.000	-5.000	-5.000	-5.000	-5.000	-5.000	-5.000	-5.000	-5.000	-5.000	-5.000	-5.000	-5.000	-5.000	-5.000	-5.000	-5.000	-5.000	-5.000	-5.000	-5.000	-5.000	-5.000	-5.000	-5.000	-5.000	-5.000	-5.000	-5.000	-5.000	-5.000	-5.000	-5.000	-5.000	-5.000	-5.000	-5.000	-5.000	-5.000	-5.000	-5.000	-5.000	-5.000	-5.000	-5.000	-5.000	-5.000	-5.000	-5.000	-5.000	-5.000	-5.000	-5.000	-5.000	-5.000	-5.000	-5.000	-5.000	-5.000	-5.000	-5.000	-5.000	-5.000	-5.000	-5.000	-5.000	-5.000	-5.000	-5.000	-5.000	-5.000	-5.000	-5.000	-5.000	-5.000	-5.000	-5.000	-5.000	-5.000	-5.000	-5.000	-5.000	-5.000	-5.000	-5.000	-5.000	-0.000	-0.000	-0.000	-0.000	-0.000	0.390	0.920	1.370	1.660	1.840	2.200	2.680	3.510	6.000	5.190	4.010	4.030	4.970	6.230	8.020	8.310	7.320	4.750	5.180	5.770	5.280	7.420	9.110	8.850	9.150	6.730	5.960	6.750	6.250	8.640	9.820	8.890	9.600	9.390	8.640	8.340	9.030	9.010	10.020	10.240	9.630	9.110	9.230	10.310	9.230	9.930	9.790	9.480	10.830	8.370	8.480	10.510	10.240	9.930	10.570	9.850	9.540	9.440	9.560	8.840	8.660	8.500	7.990	7.940	7.960	7.920	8.130	8.140	8.120	7.860	7.820	7.690	7.620	7.250	7.130	7.660	7.450	6.920	6.670	6.250	5.930	5.850	5.880	5.600	5.860	6.490	6.060	5.920	4.780	4.640	4.600	4.560	4.500	4.770	4.600	4.400	4.520	4.150	4.450	4.070	4.180	3.540	3.550	3.210	3.590	3.730	3.280	3.180	2.420	2.510	2.420	2.460	2.990	3.270	2.460	3.800	3.600	3.650	3.710	3.220	2.750	2.300	4.110	2.970	3.620	2.750	3.150	2.270	1.750	3.320	1.920	1.760	3.110	2.470	2.440	2.400	2.410	2.330	2.240	2.320	1.990	2.300	2.600	2.530	2.610	2.680	3.170	2.520	2.030	2.880	2.040	1.290	2.250	1.950	1.320	1.680	1.970	2.555	2.555	2.555	2.230	2.450	2.070	2.630	2.200	2.780	2.160	2.220	2.110	3.410	3.470	3.360	2.880	1.990	1.810	2.200	2.620	1.820	1.920	1.980	1.740	1.940	1.900	2.840	3.440	3.740	3.840	3.400	2.650	2.660	2.680	3.090	2.660	2.570	2.290	1.980	2.514	2.514	2.514	2.280	1.960	2.470	2.550	2.580	2.500	3.070	2.980	2.430	2.160	2.040	1.930	2.810	2.740	2.110	2.280	4.259	4.259	1.960	0.990	-5.000	-5.000	-5.000	1.300	2.480	3.985	3.985	2.390	2.030	3.250	2.650	3.000	4.440	4.510	4.370	4.910	4.790	5.204	5.204	1.370	0.710	0.630	0.410	0.610	0.270	0.110	0.120	0.230	0.210	0.230	0.210	0.170	0.150	0.140	0.110	0.090	0.190	0.030	-0.000	-0.000	-0.000	-0.000	-0.000	-0.000	-0.000	-0.000	-0.000	-0.000	-0.000	-0.000	-0.000	-0.000	-0.000	-5.000	-5.000	-5.000	-5.000	-5.000	-5.000	-5.000	-5.000	-5.000	-5.000	-5.000	-5.000	-5.000	-5.000	-5.000	-5.000	-5.000	-5.000	-5.000	-5.000	-5.000	-5.000	-5.000	-5.000	-5.000	-5.000	-5.000	-5.000	-5.000	-5.000	-5.000	-5.000	-5.000	-5.000	-5.000	-5.000	-5.000	-5.000	-5.000	-5.000	-5.000	-5.000	-5.000	-5.000	-5.000	-5.000	-5.000	-5.000	-5.000	-5.000	-5.000	-5.000	-5.000	-5.000	-5.000	-5.000	-5.000	-5.000	-5.000	-5.000	-5.000	-5.000	-5.000	-5.000	-5.000	-5.000	-5.000
-5.000	-5.000	-5.000	-5.000	-5.000	-5.000	-5.000	-5.000	-5.000	-5.000	-5.000	-5.000	-5.000	-5.000	-5.000	-5.000	-5.000	-5.000	-5.000	-5.000	-5.000	-5.000	-5.000	-5.000	-5.000	-5.000	-5.000	-5.000	-5.000	-5.000	-5.000	-5.000	-5.000	-5.000	-5.000	-5.000	-5.000	-5.000	-5.000	-5.000	-5.000	-5.000	-5.000	-5.000	-5.000	-5.000	-5.000	-5.000	-5.000	-5.000	-5.000	-5.000	-5.000	-5.000	-5.000	-5.000	-5.000	-5.000	-5.000	-5.000	-5.000	-5.000	-5.000	-5.000	-5.000	-5.000	-5.000	-5.000	-5.000	-5.000	-5.000	-5.000	-5.000	-5.000	-5.000	-5.000	-5.000	-5.000	-5.000	-5.000	-5.000	-5.000	-5.000	-5.000	-5.000	-5.000	-5.000	-5.000	-5.000	-5.000	-5.000	-5.000	-5.000	-5.000	-5.000	-5.000	-5.000	-5.000	-5.000	-5.000	-5.000	-5.000	-5.000	-5.000	-5.000	-5.000	-5.000	-5.000	-5.000	-5.000	-5.000	-5.000	-5.000	-0.000	-0.000	-0.000	-0.000	0.240	0.500	0.870	1.400	1.460	1.740	2.210	2.520	3.320	5.340	6.250	4.820	3.830	4.180	6.060	7.680	7.840	8.030	5.010	6.240	4.710	6.380	6.150	9.440	7.230	7.950	7.920	6.370	5.330	5.230	5.200	5.030	5.790	6.460	8.330	8.540	9.310	8.710	8.660	9.030	9.700	10.380	9.530	10.000	9.990	10.490	9.350	10.200	9.680	10.090	8.190	9.140	10.870	10.410	10.350	9.410	10.070	9.230	9.440	9.090	8.210	8.540	8.480	8.490	8.610	8.330	8.460	7.740	8.120	8.420	7.580	7.800	8.140	7.650	7.230	7.240	7.330	8.490	7.790	7.140	6.790	6.510	6.090	6.170	5.770	5.780	5.890	6.230	5.950	4.980	5.040	4.750	4.870	4.870	4.740	4.470	4.350	4.610	4.400	4.090	3.970	4.190	3.670	3.590	3.450	2.710	3.280	2.380	3.500	2.540	2.290	2.150	2.050	2.900	2.580	2.440	3.830	3.660	3.100	2.400	3.340	2.910	1.930	2.740	2.900	3.390	2.720	2.470	4.640	2.750	2.030	2.120	3.130	1.730	1.910	3.110	2.630	2.390	2.300	2.290	1.940	3.110	3.210	2.820	3.020	2.750	2.680	2.430	2.230	2.980	1.840	1.820	1.960	2.730	1.630	2.020	3.140	2.910	2.920	0.770	2.555	2.555	2.180	2.270	2.260	2.200	1.970	2.910	3.310	2.610	2.070	2.160	2.100	2.180	2.000	2.380	2.500	2.670	2.070	3.550	3.960	3.110	2.070	1.730	1.940	1.720	1.850	2.020	2.470	2.460	3.130	3.640	3.560	3.560	3.360	3.300	3.200	2.514	2.514	2.100	2.520	2.780	2.140	2.310	2.610	2.740	2.230	3.190	3.580	3.330	2.350	2.350	2.180	1.970	2.610	2.630	1.830	4.259	4.259	1.590	0.150	-5.000	-5.000	0.960	1.760	2.150	3.985	3.985	3.160	2.690	2.740	2.590	2.490	4.480	4.180	4.490	4.530	4.880	5.204	5.204	1.100	0.770	0.670	0.300	0.190	0.120	0.100	0.320	0.240	0.180	0.160	0.210	0.160	0.150	0.020	0.010	-0.000	0.120	0.040	-0.000	-0.000	-0.000	-0.000	-0.000	-0.000	-0.000	-0.000	-0.000	-0.000	-0.000	-0.000	-0.000	-0.000	-5.000	-5.000	-5.000	-5.000	-5.000	-5.000	-5.000	-5.000	-5.000	-5.000	-5.000	-5.000	-5.000	-5.000	-5.000	-5.000	-5.000	-5.000	-5.000	-5.000	-5.000	-5.000	-5.000	-5.000	-5.000	-5.000	-5.000	-5.000	-5.000	-5.000	-5.000	-5.000	-5.000	-5.000	-5.000	-5.000	-5.000	-5.000	-5.000	-5.000	-5.000	-5.000	-5.000	-5.000	-5.000	-5.000	-5.000	-5.000	-5.000	-5.000	-5.000	-5.000	-5.000	-5.000	-5.000	-5.000	-5.000	-5.000	-5.000	-5.000	-5.000	-5.000	-5.000	-5.000	-5.000	-5.000	-5.000
-5.000	-5.000	-5.000	-5.000	-5.000	-5.000	-5.000	-5.000	-5.000	-5.000	-5.000	-5.000	-5.000	-5.000	-5.000	-5.000	-5.000	-5.000	-5.000	-5.000	-5.000	-5.000	-5.000	-5.000	-5.000	-5.000	-5.000	-5.000	-5.000	-5.000	-5.000	-5.000	-5.000	-5.000	-5.000	-5.000	-5.000	-5.000	-5.000	-5.000	-5.000	-5.000	-5.000	-5.000	-5.000	-5.000	-5.000	-5.000	-5.000	-5.000	-5.000	-5.000	-5.000	-5.000	-5.000	-5.000	-5.000	-5.000	-5.000	-5.000	-5.000	-5.000	-5.000	-5.000	-5.000	-5.000	-5.000	-5.000	-5.000	-5.000	-5.000	-5.000	-5.000	-5.000	-5.000	-5.000	-5.000	-5.000	-5.000	-5.000	-5.000	-5.000	-5.000	-5.000	-5.000	-5.000	-5.000	-5.000	-5.000	-5.000	-5.000	-5.000	-5.000	-5.000	-5.000	-5.000	-5.000	-5.000	-5.000	-5.000	-5.000	-5.000	-5.000	-5.000	-5.000	-5.000	-5.000	-5.000	-5.000	-5.000	-5.000	-5.000	-5.000	-0.000	-0.000	-0.000	-0.000	0.300	0.510	0.920	1.240	1.450	1.820	2.030	2.300	3.230	6.490	5.740	5.070	4.340	4.530	5.710	6.890	7.840	7.680	5.060	5.790	4.910	5.320	5.870	8.590	8.170	7.940	6.320	7.930	5.530	4.910	4.770	5.280	5.270	5.630	5.170	5.230	5.350	6.640	9.180	9.580	10.030	10.390	10.890	10.950	10.330	10.200	10.940	11.020	10.110	9.500	8.580	8.750	10.620	9.650	9.770	9.820	10.250	9.470	9.380	8.670	8.490	8.190	8.820	8.400	9.090	7.490	6.990	7.770	8.010	7.790	7.710	8.260	7.840	7.680	7.380	7.330	8.060	10.270	8.890	8.270	7.740	6.950	7.150	6.350	6.230	5.910	5.900	6.120	5.940	5.060	5.110	5.050	4.850	4.890	4.510	4.560	4.670	4.490	4.310	4.070	4.010	4.280	3.980	4.100	3.540	3.370	3.370	2.480	3.230	2.350	1.880	2.200	2.880	2.130	2.110	2.340	2.110	1.910	2.540	2.760	2.710	3.200	2.620	1.700	2.900	2.620	2.710	2.710	2.820	2.630	3.590	1.860	1.660	3.440	1.660	1.680	3.740	2.230	2.650	1.110	1.910	1.680	1.550	1.490	1.740	1.270	1.080	2.530	3.330	2.890	3.520	1.580	2.250	1.910	1.680	2.370	2.430	2.090	2.740	3.180	-5.000	2.555	2.250	2.240	2.490	2.450	2.000	1.970	2.570	2.720	3.310	3.120	3.490	2.130	2.050	1.980	2.180	1.870	1.950	2.360	2.660	2.240	2.750	2.800	3.480	3.510	3.510	2.430	1.810	1.900	1.890	1.820	1.880	1.760	2.380	1.880	2.480	2.280	3.230	2.970	2.060	2.810	2.510	2.620	2.620	2.550	2.780	2.610	2.030	2.210	3.300	3.720	2.710	2.330	1.790	2.210	1.970	2.090	4.259	2.320	1.280	-5.000	-5.000	0.080	1.040	1.470	1.450	3.985	3.985	3.985	3.985	3.985	3.985	4.100	4.190	3.830	3.990	4.190	5.280	5.204	5.204	0.970	0.570	0.460	0.260	0.120	0.120	0.100	0.160	0.250	0.030	0.170	0.150	0.020	0.170	0.030	0.120	0.010	-0.000	0.030	-0.000	-0.000	-0.000	-0.000	-0.000	-0.000	-0.000	-0.000	-0.000	-0.000	-0.000	-0.000	-0.000	-5.000	-5.000	-5.000	-5.000	-5.000	-5.000	-5.000	-5.000	-5.000	-5.000	-5.000	-5.000	-5.000	-5.000	-5.000	-5.000	-5.000	-5.000	-5.000	-5.000	-5.000	-5.000	-5.000	-5.000	-5.000	-5.000	-5.000	-5.000	-5.000	-5.000	-5.000	-5.000	-5.000	-5.000	-5.000	-5.000	-5.000	-5.000	-5.000	-5.000	-5.000	-5.000	-5.000	-5.000	-5.000	-5.000	-5.000	-5.000	-5.000	-5.000	-5.000	-5.000	-5.000	-5.000	-5.000	-5.000	-5.000	-5.000	-5.000	-5.000	-5.000	-5.000	-5.000	-5.000	-5.000	-5.000	-5.000
-5.000	-5.000	-5.000	-5.000	-5.000	-5.000	-5.000	-5.000	-5.000	-5.000	-5.000	-5.000	-5.000	-5.000	-5.000	-5.000	-5.000	-5.000	-5.000	-5.000	-5.000	-5.000	-5.000	-5.000	-5.000	-5.000	-5.000	-5.000	-5.000	-5.000	-5.000	-5.000	-5.000	-5.000	-5.000	-5.000	-5.000	-5.000	-5.000	-5.000	-5.000	-5.000	-5.000	-5.000	-5.000	-5.000	-5.000	-5.000	-5.000	-5.000	-5.000	-5.000	-5.000	-5.000	-5.000	-5.000	-5.000	-5.000	-5.000	-5.000	-5.000	-5.000	-5.000	-5.000	-5.000	-5.000	-5.000	-5.000	-5.000	-5.000	-5.000	-5.000	-5.000	-5.000	-5.000	-5.000	-5.000	-5.000	-5.000	-5.000	-5.000	-5.000	-5.000	-5.000	-5.000	-5.000	-5.000	-5.000	-5.000	-5.000	-5.000	-5.000	-5.000	-5.000	-5.000	-5.000	-5.000	-5.000	-5.000	-5.000	-5.000	-5.000	-5.000	-5.000	-5.000	-5.000	-5.000	-5.000	-5.000	-5.000	-5.000	-5.000	-0.000	-0.000	-0.000	-0.000	-0.000	0.180	0.630	0.920	1.360	1.470	1.550	1.760	2.250	3.010	6.520	5.670	4.720	4.510	4.790	4.660	7.040	8.330	9.250	5.060	4.600	4.920	4.910	5.120	6.080	6.920	7.690	6.460	7.840	6.130	5.130	4.630	4.660	5.020	5.300	5.660	5.300	5.020	5.130	5.260	7.070	8.860	10.190	10.070	10.280	10.220	10.220	9.560	9.820	10.080	10.410	9.910	10.200	10.190	9.990	9.860	9.890	9.380	9.230	9.780	9.840	9.610	9.870	7.640	7.070	6.950	6.950	7.000	7.790	7.760	8.030	9.010	8.610	7.310	7.230	7.070	7.280	10.160	10.260	9.230	8.720	8.410	7.650	7.110	6.580	6.550	6.070	5.950	6.140	6.290	5.510	5.320	5.140	5.320	4.680	4.700	4.800	4.530	4.310	4.280	4.100	4.030	4.420	4.530	3.780	4.250	3.730	3.350	3.150	2.920	2.450	1.700	2.290	1.990	2.340	2.330	2.270	2.000	2.270	2.170	2.080	2.730	3.150	3.330	2.480	1.780	2.650	2.800	2.940	2.870	2.650	2.410	3.590	1.960	1.710	2.840	1.730	1.870	2.950	1.440	1.710	2.630	3.320	2.480	2.240	1.870	2.010	1.810	1.790	1.660	1.440	1.720	1.830	2.050	1.880	3.100	2.400	2.810	2.450	3.130	2.990	1.040	2.555	2.555	2.210	2.180	2.450	2.000	1.980	2.150	1.980	2.320	1.950	2.000	2.000	2.390	2.150	2.460	1.840	1.850	1.670	2.770	2.510	2.680	2.860	2.050	1.860	2.090	2.500	2.740	2.630	3.520	3.280	2.060	3.050	3.730	3.510	2.560	2.180	2.960	2.020	2.680	2.710	2.650	2.740	1.850	2.080	2.520	2.820	3.040	2.800	2.240	2.430	1.790	2.390	2.250	1.910	2.540	2.300	4.259	4.259	0.270	-0.000	-5.000	-0.000	0.830	1.340	1.240	1.080	2.190	1.710	1.570	1.970	3.985	4.300	4.200	3.880	3.670	4.630	4.350	4.910	5.204	5.204	0.580	0.240	0.190	0.010	0.080	0.100	-0.000	0.080	0.160	0.140	0.030	0.110	0.030	0.050	0.110	-5.000	0.080	0.060	0.310	-0.000	-0.000	-0.000	-0.000	-0.000	-0.000	-0.000	-0.000	-0.000	-0.000	-0.000	-0.000	-5.000	-5.000	-5.000	-5.000	-5.000	-5.000	-5.000	-5.000	-5.000	-5.000	-5.000	-5.000	-5.000	-5.000	-5.000	-5.000	-5.000	-5.000	-5.000	-5.000	-5.000	-5.000	-5.000	-5.000	-5.000	-5.000	-5.000	-5.000	-5.000	-5.000	-5.000	-5.000	-5.000	-5.000	-5.000	-5.000	-5.000	-5.000	-5.000	-5.000	-5.000	-5.000	-5.000	-5.000	-5.000	-5.000	-5.000	-5.000	-5.000	-5.000	-5.000	-5.000	-5.000	-5.000	-5.000	-5.000	-5.000	-5.000	-5.000	-5.000	-5.000	-5.000	-5.000	-5.000	-5.000	-5.000	-5.000
-5.000	-5.000	-5.000	-5.000	-5.000	-5.000	-5.000	-5.000	-5.000	-5.000	-5.000	-5.000	-5.000	-5.000	-5.000	-5.000	-5.000	-5.000	-5.000	-5.000	-5.000	-5.000	-5.000	-5.000	-5.000	-5.000	-5.000	-5.000	-5.000	-5.000	-5.000	-5.000	-5.000	-5.000	-5.000	-5.000	-5.000	-5.000	-5.000	-5.000	-5.000	-5.000	-5.000	-5.000	-5.000	-5.000	-5.000	-5.000	-5.000	-5.000	-5.000	-5.000	-5.000	-5.000	-5.000	-5.000	-5.000	-5.000	-5.000	-5.000	-5.000	-5.000	-5.000	-5.000	-5.000	-5.000	-5.000	-5.000	-5.000	-5.000	-5.000	-5.000	-5.000	-5.000	-5.000	-5.000	-5.000	-5.000	-5.000	-5.000	-5.000	-5.000	-5.000	-5.000	-5.000	-5.000	-5.000	-5.000	-5.000	-5.000	-5.000	-5.000	-5.000	-5.000	-5.000	-5.000	-5.000	-5.000	-5.000	-5.000	-5.000	-5.000	-5.000	-5.000	-5.000	-5.000	-5.000	-5.000	-5.000	-5.000	-5.000	-5.000	-0.000	-0.000	-0.000	-0.000	0.020	0.330	0.470	0.970	1.210	1.420	1.530	1.710	2.230	2.790	5.200	5.340	5.440	4.030	4.420	4.870	7.020	7.980	8.100	6.310	4.820	5.550	6.030	5.790	6.800	8.400	7.430	7.090	7.870	6.950	5.870	4.940	4.750	4.660	5.040	5.550	5.510	5.490	4.790	4.920	5.350	5.270	7.250	9.730	9.740	9.390	8.980	9.600	9.730	10.070	10.160	9.540	9.670	9.510	10.790	10.000	10.050	10.010	11.270	9.360	9.310	11.200	9.000	7.110	6.860	6.980	6.920	6.950	9.140	9.090	8.960	8.920	7.060	6.830	7.000	7.290	8.030	10.070	10.140	9.790	9.010	8.790	8.240	7.620	6.800	6.690	6.420	6.160	5.910	6.160	6.090	5.300	5.430	5.270	4.960	4.860	4.790	4.730	4.290	4.350	4.070	4.100	4.350	4.200	4.070	3.950	3.680	3.510	3.140	2.540	2.530	3.470	2.070	2.230	2.270	2.510	2.110	2.160	2.280	2.190	2.230	2.220	2.680	2.750	2.260	2.490	2.630	3.280	1.650	2.690	3.340	2.660	2.590	3.340	2.590	2.230	1.830	3.060	1.650	1.880	2.820	2.500	2.350	2.720	2.560	2.550	3.310	2.990	2.810	3.010	1.880	2.930	2.530	1.960	1.910	2.630	2.580	2.140	2.050	2.080	2.740	2.390	0.730	2.555	2.555	2.555	2.030	2.020	1.980	2.280	2.280	2.410	2.370	2.340	2.070	2.720	1.980	2.120	1.970	2.570	1.650	3.190	2.810	2.400	2.520	2.640	2.530	2.810	2.820	3.430	2.840	2.770	3.160	2.520	2.220	2.170	2.130	2.190	2.200	3.160	2.360	2.610	2.660	2.780	2.580	2.350	0.950	1.220	2.300	2.460	2.700	3.050	3.260	2.510	2.220	2.600	1.900	1.950	2.250	4.259	4.259	2.540	1.140	-0.000	-5.000	-0.000	1.010	1.010	0.780	1.180	0.930	0.960	1.060	3.985	4.120	4.100	4.160	4.170	4.660	4.340	4.340	3.820	5.204	5.204	0.470	0.310	0.250	-0.000	-0.000	0.010	0.020	0.100	0.120	0.200	-0.000	-0.000	0.080	0.030	-0.000	-0.000	-5.000	0.030	0.060	-0.000	-0.000	-0.000	-0.000	-0.000	-0.000	-0.000	-0.000	-0.000	-0.000	-5.000	-5.000	-5.000	-5.000	-5.000	-5.000	-5.000	-5.000	-5.000	-5.000	-5.000	-5.000	-5.000	-5.000	-5.000	-5.000	-5.000	-5.000	-5.000	-5.000	-5.000	-5.000	-5.000	-5.000	-5.000	-5.000	-5.000	-5.000	-5.000	-5.000	-5.000	-5.000	-5.000	-5.000	-5.000	-5.000	-5.000	-5.000	-5.000	-5.000	-5.000	-5.000	-5.000	-5.000	-5.000	-5.000	-5.000	-5.000	-5.000	-5.000	-5.000	-5.000	-5.000	-5.000	-5.000	-5.000	-5.000	-5.000	-5.000	-5.000	-5.000	-5.000	-5.000	-5.000	-5.000	-5.000	-5.000	-5.000
-5.000	-5.000	-5.000	-5.000	-5.000	-5.000	-5.000	-5.000	-5.000	-5.000	-5.000	-5.000	-5.000	-5.000	-5.000	-5.000	-5.000	-5.000	-5.000	-5.000	-5.000	-5.000	-5.000	-5.000	-5.000	-5.000	-5.000	-5.000	-5.000	-5.000	-5.000	-5.000	-5.000	-5.000	-5.000	-5.000	-5.000	-5.000	-5.000	-5.000	-5.000	-5.000	-5.000	-5.000	-5.000	-5.000	-5.000	-5.000	-5.000	-5.000	-5.000	-5.000	-5.000	-5.000	-5.000	-5.000	-5.000	-5.000	-5.000	-5.000	-5.000	-5.000	-5.000	-5.000	-5.000	-5.000	-5.000	-5.000	-5.000	-5.000	-5.000	-5.000	-5.000	-5.000	-5.000	-5.000	-5.000	-5.000	-5.000	-5.000	-5.000	-5.000	-5.000	-5.000	-5.000	-5.000	-5.000	-5.000	-5.000	-5.000	-5.000	-5.000	-5.000	-5.000	-5.000	-5.000	-5.000	-5.000	-5.000	-5.000	-5.000	-5.000	-5.000	-5.000	-5.000	-5.000	-5.000	-5.000	-5.000	-5.000	-5.000	-5.000	-0.000	-0.000	-0.000	-0.000	0.140	0.260	0.600	0.930	1.080	1.100	1.370	1.510	1.910	2.670	3.730	5.500	5.520	4.390	4.030	4.410	5.130	6.240	8.060	7.580	5.150	5.590	4.950	5.530	5.970	7.560	6.610	5.750	7.910	7.800	6.450	5.810	4.820	4.690	4.670	5.050	5.410	5.540	5.120	5.300	5.080	5.290	5.370	5.000	8.480	9.510	8.990	9.200	9.370	9.460	9.050	8.970	9.320	9.820	10.190	10.060	9.480	9.040	8.240	8.950	8.990	9.010	8.090	6.870	7.000	7.900	9.080	9.170	9.060	9.070	9.080	7.290	7.110	6.840	7.060	7.280	9.240	10.050	10.050	10.270	9.560	8.790	8.470	8.090	7.760	7.620	6.440	6.190	5.960	6.250	6.350	5.800	6.240	5.410	5.220	4.950	4.900	4.800	4.620	4.430	4.190	4.830	4.200	4.550	4.050	3.780	3.480	3.090	3.070	2.530	2.540	2.700	1.950	2.200	2.220	2.140	2.570	2.350	2.300	2.330	2.280	2.270	2.110	2.770	2.270	2.700	2.650	2.710	2.530	2.900	2.660	3.120	2.570	2.530	2.770	3.890	1.910	3.100	2.590	1.820	1.850	2.640	2.510	2.580	2.390	2.920	2.670	2.660	3.070	3.260	1.650	3.330	1.790	1.790	3.070	2.100	2.750	2.550	2.090	2.130	2.120	2.640	2.540	-5.000	3.050	2.555	2.555	2.555	2.555	2.555	2.555	2.555	2.040	2.010	1.940	2.100	2.160	2.050	2.690	2.050	1.740	3.130	2.860	2.330	2.500	2.740	2.980	3.010	2.670	2.430	2.710	2.260	2.190	2.170	2.110	2.320	2.780	3.140	3.770	2.680	3.020	2.670	3.010	2.900	3.030	2.660	1.020	2.380	2.230	1.560	1.730	2.420	2.760	2.890	2.480	2.040	1.930	2.010	2.320	4.259	2.640	2.130	2.010	0.030	-5.000	-0.000	0.810	1.030	0.840	0.750	0.810	0.820	0.960	3.985	4.290	4.120	4.040	4.120	4.150	4.690	4.460	4.200	4.090	3.985	3.270	0.630	0.010	0.040	-0.000	-0.000	-0.000	0.050	0.060	0.030	0.020	0.050	-0.000	0.020	-0.000	-0.000	-0.000	0.020	-0.000	-0.000	-0.000	-0.000	-0.000	-0.000	-0.000	-0.000	-0.000	-0.000	-0.000	-5.000	-5.000	-5.000	-5.000	-5.000	-5.000	-5.000	-5.000	-5.000	-5.000	-5.000	-5.000	-5.000	-5.000	-5.000	-5.000	-5.000	-5.000	-5.000	-5.000	-5.000	-5.000	-5.000	-5.000	-5.000	-5.000	-5.000	-5.000	-5.000	-5.000	-5.000	-5.000	-5.000	-5.000	-5.000	-5.000	-5.000	-5.000	-5.000	-5.000	-5.000	-5.000	-5.000	-5.000	-5.000	-5.000	-5.000	-5.000	-5.000	-5.000	-5.000	-5.000	-5.000	-5.000	-5.000	-5.000	-5.000	-5.000	-5.000	-5.000	-5.000	-5.000	-5.000	-5.000	-5.000	-5.000	-5.000	-5.000
-5.000	-5.000	-5.000	-5.000	-5.000	-5.000	-5.000	-5.000	-5.000	-5.000	-5.000	-5.000	-5.000	-5.000	-5.000	-5.000	-5.000	-5.000	-5.000	-5.000	-5.000	-5.000	-5.000	-5.000	-5.000	-5.000	-5.000	-5.000	-5.000	-5.000	-5.000	-5.000	-5.000	-5.000	-5.000	-5.000	-5.000	-5.000	-5.000	-5.000	-5.000	-5.000	-5.000	-5.000	-5.000	-5.000	-5.000	-5.000	-5.000	-5.000	-5.000	-5.000	-5.000	-5.000	-5.000	-5.000	-5.000	-5.000	-5.000	-5.000	-5.000	-5.000	-5.000	-5.000	-5.000	-5.000	-5.000	-5.000	-5.000	-5.000	-5.000	-5.000	-5.000	-5.000	-5.000	-5.000	-5.000	-5.000	-5.000	-5.000	-5.000	-5.000	-5.000	-5.000	-5.000	-5.000	-5.000	-5.000	-5.000	-5.000	-5.000	-5.000	-5.000	-5.000	-5.000	-5.000	-5.000	-5.000	-5.000	-5.000	-5.000	-5.000	-5.000	-5.000	-5.000	-5.000	-5.000	-5.000	-5.000	-5.000	-5.000	-5.000	-5.000	-0.000	-0.000	-0.000	-0.000	0.140	0.500	0.770	0.930	1.010	1.170	1.330	1.820	2.410	3.390	6.020	5.170	4.870	4.430	4.340	4.760	6.210	7.300	7.040	5.490	5.350	5.150	4.860	5.300	6.850	9.170	6.880	6.820	7.700	8.890	5.920	5.490	5.150	4.730	4.550	5.310	5.450	5.250	5.110	5.300	5.160	4.930	5.070	5.310	5.780	8.560	9.020	8.120	9.300	9.310	9.050	8.990	9.100	10.480	9.660	8.750	10.110	10.220	8.420	8.490	8.890	9.100	9.160	9.340	9.210	9.150	8.850	9.140	9.140	8.870	8.010	6.990	6.780	7.050	8.900	9.640	9.570	9.920	10.150	11.460	10.130	9.120	8.680	8.510	7.480	6.610	6.200	6.260	6.030	5.740	6.510	6.110	5.430	5.370	5.210	4.990	4.820	4.450	4.810	4.880	4.290	4.310	4.290	4.420	3.800	3.460	3.370	2.980	2.140	2.090	2.600	2.430	2.130	1.810	2.260	1.830	2.450	2.430	2.440	2.650	2.320	2.460	2.830	2.520	2.430	3.430	2.830	2.640	2.560	2.560	2.450	2.790	2.830	2.610	2.620	2.810	2.380	2.470	2.500	2.380	2.270	2.140	3.340	2.710	2.980	2.780	2.730	3.720	1.780	3.310	1.540	1.890	3.330	2.110	2.590	2.850	2.430	3.140	2.330	2.240	2.600	2.560	1.390	-5.000	2.500	2.555	2.555	2.470	2.380	2.600	2.555	2.555	1.940	1.980	1.930	1.990	2.070	2.610	1.850	3.040	2.590	2.880	2.410	2.730	2.830	3.200	2.530	2.300	2.680	3.160	3.100	3.430	3.260	3.320	2.650	2.770	2.380	2.680	2.250	2.120	3.170	3.100	3.200	2.940	1.190	2.550	2.200	1.340	1.600	1.960	2.140	2.040	1.730	2.360	2.410	2.020	2.050	1.960	4.259	4.259	2.250	3.140	1.040	-5.000	-5.000	0.550	0.870	0.790	0.650	0.680	0.780	0.890	3.985	3.870	4.050	4.160	4.040	3.840	3.690	3.670	3.670	3.985	3.985	0.950	0.620	0.530	0.060	-0.000	-0.000	-0.000	0.100	0.010	0.040	0.050	0.070	-0.000	0.010	-0.000	-0.000	0.030	-0.000	-0.000	-0.000	-0.000	-0.000	-0.000	-0.000	-0.000	-0.000	-0.000	-0.000	-0.000	-5.000	-5.000	-5.000	-5.000	-5.000	-5.000	-5.000	-5.000	-5.000	-5.000	-5.000	-5.000	-5.000	-5.000	-5.000	-5.000	-5.000	-5.000	-5.000	-5.000	-5.000	-5.000	-5.000	-5.000	-5.000	-5.000	-5.000	-5.000	-5.000	-5.000	-5.000	-5.000	-5.000	-5.000	-5.000	-5.000	-5.000	-5.000	-5.000	-5.000	-5.000	-5.000	-5.000	-5.000	-5.000	-5.000	-5.000	-5.000	-5.000	-5.000	-5.000	-5.000	-5.000	-5.000	-5.000	-5.000	-5.000	-5.000	-5.000	-5.000	-5.000	-5.000	-5.000	-5.000	-5.000	-5.000	-5.000	-5.000
-5.000	-5.000	-5.000	-5.000	-5.000	-5.000	-5.000	-5.000	-5.000	-5.000	-5.000	-5.000	-5.000	-5.000	-5.000	-5.000	-5.000	-5.000	-5.000	-5.000	-5.000	-5.000	-5.000	-5.000	-5.000	-5.000	-5.000	-5.000	-5.000	-5.000	-5.000	-5.000	-5.000	-5.000	-5.000	-5.000	-5.000	-5.000	-5.000	-5.000	-5.000	-5.000	-5.000	-5.000	-5.000	-5.000	-5.000	-5.000	-5.000	-5.000	-5.000	-5.000	-5.000	-5.000	-5.000	-5.000	-5.000	-5.000	-5.000	-5.000	-5.000	-5.000	-5.000	-5.000	-5.000	-5.000	-5.000	-5.000	-5.000	-5.000	-5.000	-5.000	-5.000	-5.000	-5.000	-5.000	-5.000	-5.000	-5.000	-5.000	-5.000	-5.000	-5.000	-5.000	-5.000	-5.000	-5.000	-5.000	-5.000	-5.000	-5.000	-5.000	-5.000	-5.000	-5.000	-5.000	-5.000	-5.000	-5.000	-5.000	-5.000	-5.000	-5.000	-5.000	-5.000	-5.000	-5.000	-5.000	-5.000	-5.000	-5.000	-5.000	-5.000	-0.000	-0.000	-0.000	-0.000	0.130	0.390	0.680	0.510	0.930	1.200	1.320	1.650	2.240	3.120	7.220	5.780	6.000	4.880	4.830	6.980	7.050	8.220	7.120	5.700	4.920	5.970	4.920	4.840	5.330	4.280	6.010	7.780	7.240	7.700	6.970	5.020	5.580	5.070	4.760	5.700	5.370	5.510	5.030	5.630	5.620	5.310	5.300	5.710	5.690	5.050	5.930	7.690	8.420	9.120	9.180	9.670	10.370	10.200	8.630	8.770	9.600	9.930	9.030	9.110	9.790	9.000	8.890	8.430	9.450	9.100	8.890	9.080	8.890	9.250	7.910	7.250	7.300	8.850	8.820	9.110	9.380	9.650	11.360	11.190	11.120	9.800	9.970	9.040	7.620	7.030	6.500	6.220	6.150	5.800	5.900	5.870	5.250	5.340	5.350	5.060	4.690	4.760	4.800	4.860	4.450	4.510	4.200	4.250	3.680	3.570	3.290	3.070	2.220	3.350	3.150	2.260	2.750	2.430	2.250	2.410	2.040	1.840	1.600	2.810	2.700	2.540	3.210	2.670	2.670	2.350	3.210	2.630	2.500	2.600	2.520	2.300	2.670	2.880	2.580	2.570	2.190	2.850	2.300	2.920	1.850	3.060	2.290	2.120	2.860	2.760	3.230	1.990	2.980	3.350	1.720	3.270	2.480	2.540	2.830	2.380	2.080	2.410	2.530	1.850	1.900	0.860	1.750	2.480	0.720	-5.000	1.800	3.000	0.540	2.350	2.760	2.555	2.555	1.970	1.970	1.970	2.340	2.400	2.350	2.080	2.420	2.100	2.240	3.020	2.650	2.720	2.560	2.690	2.740	2.410	2.710	2.790	2.380	2.590	2.350	2.380	2.500	2.170	1.850	3.170	2.230	2.140	2.030	2.760	2.850	2.740	2.290	2.470	1.270	2.070	2.180	2.140	1.890	2.230	2.650	2.360	2.070	1.920	1.990	4.259	2.810	2.440	1.830	-0.000	-5.000	-0.000	0.600	0.660	0.600	0.730	0.840	0.910	3.985	3.650	3.950	3.760	4.010	3.820	3.760	3.440	3.985	3.985	0.630	0.460	0.730	0.790	0.520	0.040	-0.000	-0.000	-0.000	0.010	-0.000	0.100	0.040	-0.000	-0.000	-0.000	-0.000	-0.000	-0.000	-0.000	-0.000	-0.000	-0.000	-0.000	-0.000	-0.000	-0.000	-0.000	-0.000	-0.000	-5.000	-5.000	-5.000	-5.000	-5.000	-5.000	-5.000	-5.000	-5.000	-5.000	-5.000	-5.000	-5.000	-5.000	-5.000	-5.000	-5.000	-5.000	-5.000	-5.000	-5.000	-5.000	-5.000	-5.000	-5.000	-5.000	-5.000	-5.000	-5.000	-5.000	-5.000	-5.000	-5.000	-5.000	-5.000	-5.000	-5.000	-5.000	-5.000	-5.000	-5.000	-5.000	-5.000	-5.000	-5.000	-5.000	-5.000	-5.000	-5.000	-5.000	-5.000	-5.000	-5.000	-5.000	-5.000	-5.000	-5.000	-5.000	-5.000	-5.000	-5.000	-5.000	-5.000	-5.000	-5.000	-5.000	-5.000	-5.000
-5.000	-5.000	-5.000	-5.000	-5.000	-5.000	-5.000	-5.000	-5.000	-5.000	-5.000	-5.000	-5.000	-5.000	-5.000	-5.000	-5.000	-5.000	-5.000	-5.000	-5.000	-5.000	-5.000	-5.000	-5.000	-5.000	-5.000	-5.000	-5.000	-5.000	-5.000	-5.000	-5.000	-5.000	-5.000	-5.000	-5.000	-5.000	-5.000	-5.000	-5.000	-5.000	-5.000	-5.000	-5.000	-5.000	-5.000	-5.000	-5.000	-5.000	-5.000	-5.000	-5.000	-5.000	-5.000	-5.000	-5.000	-5.000	-5.000	-5.000	-5.000	-5.000	-5.000	-5.000	-5.000	-5.000	-5.000	-5.000	-5.000	-5.000	-5.000	-5.000	-5.000	-5.000	-5.000	-5.000	-5.000	-5.000	-5.000	-5.000	-5.000	-5.000	-5.000	-5.000	-5.000	-5.000	-5.000	-5.000	-5.000	-5.000	-5.000	-5.000	-5.000	-5.000	-5.000	-5.000	-5.000	-5.000	-5.000	-5.000	-5.000	-5.000	-5.000	-5.000	-5.000	-5.000	-5.000	-5.000	-5.000	-5.000	-5.000	-5.000	-5.000	-5.000	-0.000	-0.000	-0.000	-0.000	0.310	0.250	0.550	0.730	1.100	1.350	1.370	2.290	2.920	7.710	5.540	4.670	5.130	7.050	6.630	7.750	7.510	6.630	5.880	5.370	5.460	4.960	4.950	6.340	5.150	7.060	8.370	7.390	7.220	6.510	6.900	7.370	5.830	4.970	4.750	4.850	4.830	4.730	4.570	4.180	4.800	5.370	4.610	4.780	4.910	4.590	5.770	7.590	8.960	10.460	10.390	10.350	9.880	9.750	10.290	9.750	9.570	9.000	9.970	8.540	8.710	8.790	9.000	9.080	9.040	8.990	8.860	8.980	9.330	9.380	7.420	7.210	9.530	9.230	9.150	9.520	10.090	10.060	10.380	10.620	10.210	10.740	9.800	9.260	7.240	6.840	6.170	5.970	5.810	5.540	5.990	5.740	5.140	5.100	4.870	5.360	5.610	4.790	4.750	4.790	4.750	4.230	4.280	4.010	3.560	3.450	3.090	2.640	3.600	2.790	2.980	2.610	2.910	2.720	1.890	1.850	2.210	1.620	1.880	1.970	2.770	1.880	2.550	3.080	2.680	2.550	2.940	2.330	1.760	2.550	2.510	3.200	2.570	2.480	1.970	3.360	2.300	3.720	2.350	2.850	2.310	2.800	2.000	2.540	2.700	2.750	1.940	3.640	1.910	1.750	2.350	2.650	2.790	2.190	2.810	2.110	2.450	1.900	1.230	1.740	1.840	2.620	2.610	3.140	2.830	2.680	0.880	-5.000	3.090	2.470	2.210	2.555	2.555	2.230	1.910	1.810	1.880	2.250	2.540	3.210	3.220	2.470	2.640	2.790	2.790	2.830	2.950	2.840	2.600	2.950	2.760	2.280	2.400	2.470	3.560	3.500	2.480	2.840	3.180	2.960	3.130	3.060	3.640	2.960	2.270	2.470	2.070	2.560	1.870	2.110	2.370	2.130	2.490	2.640	2.350	1.900	2.080	1.980	4.259	2.010	1.850	1.900	0.380	-5.000	-0.000	0.590	0.570	0.630	0.720	0.650	0.820	3.985	3.710	3.985	3.985	3.985	3.985	3.985	3.985	3.985	0.500	0.390	0.380	0.430	0.600	0.760	0.130	-0.000	-0.000	-0.000	-0.000	-0.000	0.010	0.090	-0.000	-0.000	-0.000	-0.000	-0.000	-0.000	-0.000	-0.000	-0.000	-0.000	-0.000	-0.000	-0.000	-0.000	-0.000	-0.000	-5.000	-5.000	-5.000	-5.000	-5.000	-5.000	-5.000	-5.000	-5.000	-5.000	-5.000	-5.000	-5.000	-5.000	-5.000	-5.000	-5.000	-5.000	-5.000	-5.000	-5.000	-5.000	-5.000	-5.000	-5.000	-5.000	-5.000	-5.000	-5.000	-5.000	-5.000	-5.000	-5.000	-5.000	-5.000	-5.000	-5.000	-5.000	-5.000	-5.000	-5.000	-5.000	-5.000	-5.000	-5.000	-5.000	-5.000	-5.000	-5.000	-5.000	-5.000	-5.000	-5.000	-5.000	-5.000	-5.000	-5.000	-5.000	-5.000	-5.000	-5.000	-5.000	-5.000	-5.000	-5.000	-5.000	-5.000	-5.000	-5.000
-5.000	-5.000	-5.000	-5.000	-5.000	-5.000	-5.000	-5.000	-5.000	-5.000	-5.000	-5.000	-5.000	-5.000	-5.000	-5.000	-5.000	-5.000	-5.000	-5.000	-5.000	-5.000	-5.000	-5.000	-5.000	-5.000	-5.000	-5.000	-5.000	-5.000	-5.000	-5.000	-5.000	-5.000	-5.000	-5.000	-5.000	-5.000	-5.000	-5.000	-5.000	-5.000	-5.000	-5.000	-5.000	-5.000	-5.000	-5.000	-5.000	-5.000	-5.000	-5.000	-5.000	-5.000	-5.000	-5.000	-5.000	-5.000	-5.000	-5.000	-5.000	-5.000	-5.000	-5.000	-5.000	-5.000	-5.000	-5.000	-5.000	-5.000	-5.000	-5.000	-5.000	-5.000	-5.000	-5.000	-5.000	-5.000	-5.000	-5.000	-5.000	-5.000	-5.000	-5.000	-5.000	-5.000	-5.000	-5.000	-5.000	-5.000	-5.000	-5.000	-5.000	-5.000	-5.000	-5.000	-5.000	-5.000	-5.000	-5.000	-5.000	-5.000	-5.000	-5.000	-5.000	-5.000	-5.000	-5.000	-5.000	-5.000	-5.000	-5.000	-5.000	-5.000	-0.000	-0.000	-0.000	-0.000	0.020	0.180	0.470	0.440	0.710	1.010	1.430	1.780	2.720	5.600	6.510	5.710	6.810	7.290	7.160	6.630	7.600	6.900	5.810	5.080	5.560	5.930	5.040	5.150	7.230	8.530	6.630	7.560	7.020	7.010	7.480	7.170	6.220	5.330	5.220	5.180	5.420	5.360	5.110	5.150	5.580	5.480	5.670	5.290	4.890	4.870	5.550	6.600	7.700	9.390	10.690	10.410	10.080	9.980	10.210	10.250	8.990	7.970	9.080	8.700	8.900	9.430	8.700	8.900	8.820	9.090	8.660	8.940	8.910	9.390	9.000	7.360	8.370	8.210	8.800	9.910	10.180	10.310	10.580	10.990	11.010	10.410	9.770	10.240	7.830	7.300	6.520	6.240	6.140	6.120	5.840	5.930	5.640	5.090	4.980	5.740	4.810	5.150	4.820	4.620	4.670	4.260	4.180	3.880	3.510	3.290	3.160	2.710	2.400	3.120	2.690	3.150	2.810	1.970	2.450	2.710	2.710	2.330	2.590	2.340	3.190	1.170	2.490	1.910	4.070	2.190	2.340	2.680	2.810	2.370	2.500	3.270	1.510	1.870	3.600	2.350	3.910	2.010	1.990	3.120	2.570	1.980	2.460	2.070	1.980	1.980	1.990	2.610	2.360	3.030	2.560	2.470	2.090	2.250	2.190	2.470	1.930	1.940	2.930	1.730	3.380	1.960	1.870	2.350	2.290	2.090	0.670	2.980	-5.000	-5.000	2.770	0.160	2.555	2.555	1.960	1.770	1.930	2.120	2.280	2.100	2.750	2.020	2.490	3.090	2.910	3.270	3.230	2.850	3.520	3.440	3.070	2.440	2.380	2.290	2.350	2.210	2.520	3.100	3.800	3.640	2.860	3.170	3.150	3.420	2.850	2.790	2.530	2.510	2.240	1.310	2.280	2.200	1.130	1.960	2.030	2.160	2.310	4.259	4.259	1.610	1.570	1.650	0.790	-0.000	-5.000	0.020	0.630	0.510	0.530	0.630	0.690	3.985	3.985	3.985	1.980	0.680	0.510	0.610	0.470	0.500	0.500	0.430	0.290	-0.000	0.250	0.410	0.310	0.010	-0.000	-0.000	-0.000	-0.000	-0.000	-0.000	-0.000	-0.000	-0.000	-0.000	-0.000	-0.000	-0.000	-0.000	-0.000	-0.000	-0.000	-0.000	-0.000	-0.000	-0.000	-0.000	-5.000	-5.000	-5.000	-5.000	-5.000	-5.000	-5.000	-5.000	-5.000	-5.000	-5.000	-5.000	-5.000	-5.000	-5.000	-5.000	-5.000	-5.000	-5.000	-5.000	-5.000	-5.000	-5.000	-5.000	-5.000	-5.000	-5.000	-5.000	-5.000	-5.000	-5.000	-5.000	-5.000	-5.000	-5.000	-5.000	-5.000	-5.000	-5.000	-5.000	-5.000	-5.000	-5.000	-5.000	-5.000	-5.000	-5.000	-5.000	-5.000	-5.000	-5.000	-5.000	-5.000	-5.000	-5.000	-5.000	-5.000	-5.000	-5.000	-5.000	-5.000	-5.000	-5.000	-5.000	-5.000	-5.000	-5.000	-5.000	-5.000
-5.000	-5.000	-5.000	-5.000	-5.000	-5.000	-5.000	-5.000	-5.000	-5.000	-5.000	-5.000	-5.000	-5.000	-5.000	-5.000	-5.000	-5.000	-5.000	-5.000	-5.000	-5.000	-5.000	-5.000	-5.000	-5.000	-5.000	-5.000	-5.000	-5.000	-5.000	-5.000	-5.000	-5.000	-5.000	-5.000	-5.000	-5.000	-5.000	-5.000	-5.000	-5.000	-5.000	-5.000	-5.000	-5.000	-5.000	-5.000	-5.000	-5.000	-5.000	-5.000	-5.000	-5.000	-5.000	-5.000	-5.000	-5.000	-5.000	-5.000	-5.000	-5.000	-5.000	-5.000	-5.000	-5.000	-5.000	-5.000	-5.000	-5.000	-5.000	-5.000	-5.000	-5.000	-5.000	-5.000	-5.000	-5.000	-5.000	-5.000	-5.000	-5.000	-5.000	-5.000	-5.000	-5.000	-5.000	-5.000	-5.000	-5.000	-5.000	-5.000	-5.000	-5.000	-5.000	-5.000	-5.000	-5.000	-5.000	-5.000	-5.000	-5.000	-5.000	-5.000	-5.000	-5.000	-5.000	-5.000	-5.000	-5.000	-5.000	-5.000	-5.000	-5.000	-0.000	-0.000	-0.000	-0.000	-0.000	0.040	0.260	0.450	0.680	1.060	1.270	1.760	2.440	3.710	7.850	5.620	5.270	4.020	4.340	5.740	5.610	7.020	5.860	5.420	6.190	5.950	4.880	5.310	6.190	8.440	6.990	5.580	5.070	6.130	6.800	7.120	6.900	5.920	5.620	4.760	5.480	5.310	5.410	5.120	5.290	5.010	5.440	5.150	4.700	4.980	5.440	5.660	6.540	7.310	9.430	9.860	10.370	10.290	9.460	10.020	8.860	9.560	9.930	8.850	8.840	9.110	8.770	8.950	9.010	9.210	8.560	8.940	9.540	9.760	9.540	8.840	7.550	7.310	7.590	8.150	8.780	9.830	10.710	11.710	11.590	10.870	10.540	10.640	9.450	7.570	7.270	6.690	6.430	6.130	6.050	5.970	5.870	5.390	5.520	4.990	5.220	5.030	5.160	4.620	4.930	4.370	4.400	3.890	3.750	3.740	3.420	2.810	2.770	2.600	2.630	2.580	2.940	2.270	2.800	3.760	3.620	2.340	2.910	3.340	2.300	2.790	1.250	2.660	1.840	3.550	2.190	2.340	2.250	2.540	2.840	2.390	2.320	3.510	2.470	3.740	1.910	2.780	3.300	2.730	2.870	2.780	2.070	1.900	1.940	1.920	2.080	2.390	2.700	2.720	2.380	2.500	2.460	2.510	2.250	1.920	2.030	2.360	1.730	2.190	2.880	1.350	3.370	2.380	2.740	2.350	1.780	2.210	2.040	2.360	1.540	-5.000	-5.000	2.555	2.555	2.160	2.120	2.010	2.420	3.730	2.050	2.030	3.130	3.120	2.710	2.660	2.410	2.390	2.470	2.430	2.370	2.480	2.410	2.430	2.440	2.270	2.300	2.000	2.610	3.670	3.030	3.670	3.490	3.650	2.620	2.770	2.790	1.980	2.450	1.500	1.570	1.990	2.170	2.330	2.450	2.500	4.259	4.259	1.090	1.630	1.580	1.500	0.210	0.580	-5.000	0.100	0.590	0.530	0.420	0.550	0.540	0.650	0.490	0.570	0.580	0.530	0.440	0.440	0.580	0.510	0.430	0.400	0.320	0.180	-0.000	0.210	0.190	0.220	0.080	-0.000	-0.000	-0.000	-0.000	-0.000	-0.000	-0.000	-0.000	-0.000	-0.000	-0.000	-0.000	-0.000	-0.000	-0.000	-0.000	-0.000	-0.000	-0.000	-0.000	-0.000	-5.000	-5.000	-5.000	-5.000	-5.000	-5.000	-5.000	-5.000	-5.000	-5.000	-5.000	-5.000	-5.000	-5.000	-5.000	-5.000	-5.000	-5.000	-5.000	-5.000	-5.000	-5.000	-5.000	-5.000	-5.000	-5.000	-5.000	-5.000	-5.000	-5.000	-5.000	-5.000	-5.000	-5.000	-5.000	-5.000	-5.000	-5.000	-5.000	-5.000	-5.000	-5.000	-5.000	-5.000	-5.000	-5.000	-5.000	-5.000	-5.000	-5.000	-5.000	-5.000	-5.000	-5.000	-5.000	-5.000	-5.000	-5.000	-5.000	-5.000	-5.000	-5.000	-5.000	-5.000	-5.000	-5.000	-5.000	-5.000	-5.000
-5.000	-5.000	-5.000	-5.000	-5.000	-5.000	-5.000	-5.000	-5.000	-5.000	-5.000	-5.000	-5.000	-5.000	-5.000	-5.000	-5.000	-5.000	-5.000	-5.000	-5.000	-5.000	-5.000	-5.000	-5.000	-5.000	-5.000	-5.000	-5.000	-5.000	-5.000	-5.000	-5.000	-5.000	-5.000	-5.000	-5.000	-5.000	-5.000	-5.000	-5.000	-5.000	-5.000	-5.000	-5.000	-5.000	-5.000	-5.000	-5.000	-5.000	-5.000	-5.000	-5.000	-5.000	-5.000	-5.000	-5.000	-5.000	-5.000	-5.000	-5.000	-5.000	-5.000	-5.000	-5.000	-5.000	-5.000	-5.000	-5.000	-5.000	-5.000	-5.000	-5.000	-5.000	-5.000	-5.000	-5.000	-5.000	-5.000	-5.000	-5.000	-5.000	-5.000	-5.000	-5.000	-5.000	-5.000	-5.000	-5.000	-5.000	-5.000	-5.000	-5.000	-5.000	-5.000	-5.000	-5.000	-5.000	-5.000	-5.000	-5.000	-5.000	-5.000	-5.000	-5.000	-5.000	-5.000	-5.000	-5.000	-5.000	-5.000	-5.000	-5.000	-5.000	-5.000	-0.000	-0.000	-0.000	-0.000	0.050	0.270	0.500	0.630	0.950	1.200	1.580	2.280	3.390	7.460	5.940	4.300	3.870	4.620	6.430	6.690	5.610	5.390	5.150	5.310	5.470	4.880	4.630	5.440	6.230	6.300	6.110	7.300	7.130	6.610	8.130	5.620	5.960	5.800	5.030	5.110	5.440	5.590	5.330	5.230	5.480	5.160	4.960	4.560	5.150	5.120	5.270	5.770	6.120	7.480	9.510	9.780	10.300	9.350	9.440	9.650	9.420	9.550	9.130	9.000	9.010	9.060	9.470	9.020	9.290	9.380	9.700	9.950	9.570	10.110	9.640	9.210	9.070	7.500	7.480	7.580	7.410	8.860	10.010	11.510	11.140	10.500	10.320	10.690	8.910	7.370	6.550	6.530	6.140	6.080	6.070	6.160	6.080	5.200	5.660	5.460	5.360	5.100	4.750	4.410	4.260	4.240	3.900	3.730	3.620	3.570	2.710	4.660	2.470	2.430	2.580	2.550	3.680	2.650	3.390	4.440	2.170	2.960	3.070	2.930	2.250	2.730	1.250	2.540	1.890	3.130	2.590	2.020	2.070	2.480	2.540	2.780	2.430	3.380	1.820	2.570	3.180	2.990	1.740	2.950	3.380	3.140	3.060	2.960	2.720	2.850	2.630	1.990	2.570	1.940	2.070	2.030	2.550	1.710	1.870	2.190	1.650	1.620	3.520	3.560	1.980	1.830	1.320	2.900	1.670	3.400	1.930	2.900	2.730	3.100	2.680	2.150	-5.000	2.555	2.555	2.340	2.250	2.060	1.980	2.080	3.010	2.320	2.950	3.300	2.780	2.310	2.530	2.430	2.410	2.530	2.690	3.480	3.440	3.080	1.760	2.040	1.950	3.060	3.480	2.850	3.740	2.540	2.920	1.970	2.390	2.590	2.240	2.370	2.480	1.460	2.190	2.060	2.050	2.260	2.420	4.259	1.470	1.080	1.310	1.390	0.100	0.620	0.580	-5.000	-0.000	0.320	0.380	0.500	0.420	0.480	0.480	0.400	0.610	0.530	0.550	0.540	0.530	0.510	0.450	0.490	0.420	0.210	0.350	0.080	-0.000	-0.000	0.120	0.050	0.040	-0.000	-0.000	-0.000	-0.000	-0.000	-0.000	-0.000	-0.000	-0.000	-0.000	-0.000	-0.000	-0.000	-0.000	-0.000	-0.000	-0.000	-0.000	-0.000	-5.000	-5.000	-5.000	-5.000	-5.000	-5.000	-5.000	-5.000	-5.000	-5.000	-5.000	-5.000	-5.000	-5.000	-5.000	-5.000	-5.000	-5.000	-5.000	-5.000	-5.000	-5.000	-5.000	-5.000	-5.000	-5.000	-5.000	-5.000	-5.000	-5.000	-5.000	-5.000	-5.000	-5.000	-5.000	-5.000	-5.000	-5.000	-5.000	-5.000	-5.000	-5.000	-5.000	-5.000	-5.000	-5.000	-5.000	-5.000	-5.000	-5.000	-5.000	-5.000	-5.000	-5.000	-5.000	-5.000	-5.000	-5.000	-5.000	-5.000	-5.000	-5.000	-5.000	-5.000	-5.000	-5.000	-5.000	-5.000	-5.000	-5.000
-5.000	-5.000	-5.000	-5.000	-5.000	-5.000	-5.000	-5.000	-5.000	-5.000	-5.000	-5.000	-5.000	-5.000	-5.000	-5.000	-5.000	-5.000	-5.000	-5.000	-5.000	-5.000	-5.000	-5.000	-5.000	-5.000	-5.000	-5.000	-5.000	-5.000	-5.000	-5.000	-5.000	-5.000	-5.000	-5.000	-5.000	-5.000	-5.000	-5.000	-5.000	-5.000	-5.000	-5.000	-5.000	-5.000	-5.000	-5.000	-5.000	-5.000	-5.000	-5.000	-5.000	-5.000	-5.000	-5.000	-5.000	-5.000	-5.000	-5.000	-5.000	-5.000	-5.000	-5.000	-5.000	-5.000	-5.000	-5.000	-5.000	-5.000	-5.000	-5.000	-5.000	-5.000	-5.000	-5.000	-5.000	-5.000	-5.000	-5.000	-5.000	-5.000	-5.000	-5.000	-5.000	-5.000	-5.000	-5.000	-5.000	-5.000	-5.000	-5.000	-5.000	-5.000	-5.000	-5.000	-5.000	-5.000	-5.000	-5.000	-5.000	-5.000	-5.000	-5.000	-5.000	-5.000	-5.000	-5.000	-5.000	-5.000	-5.000	-5.000	-5.000	-5.000	-5.000	-0.000	-0.000	-0.000	-0.000	-0.000	0.160	0.370	0.520	0.820	1.070	1.450	2.150	3.010	7.590	5.330	5.790	4.460	5.050	6.590	8.370	6.280	5.390	5.030	5.200	4.840	5.340	5.200	5.540	6.440	7.760	7.020	8.010	7.750	6.780	7.630	5.480	5.240	5.880	5.150	4.500	5.490	5.620	5.550	4.880	5.230	5.820	5.030	5.250	5.150	5.160	5.010	5.500	5.530	5.520	7.240	9.030	10.180	10.640	9.850	9.920	9.790	9.610	9.650	8.540	8.890	9.110	8.740	9.090	10.120	10.260	9.830	9.800	10.100	9.820	9.690	9.180	9.830	10.190	8.450	7.750	7.520	7.190	7.790	9.370	10.790	10.730	10.760	10.690	8.960	7.040	6.840	6.560	6.400	6.190	6.340	6.120	6.030	5.960	6.350	6.090	5.400	4.840	4.720	4.320	4.350	4.220	4.240	4.250	3.970	4.730	3.140	4.640	2.430	2.370	2.440	2.410	2.860	3.170	2.420	2.030	3.960	2.700	2.530	3.300	2.620	2.250	2.250	1.090	3.190	2.100	1.900	2.450	1.990	3.110	1.150	1.260	3.180	2.520	1.960	1.990	2.860	2.470	2.380	1.840	1.810	1.810	1.840	1.810	1.760	2.150	2.830	3.270	3.310	2.780	1.900	1.980	2.050	1.830	2.010	1.700	1.750	3.580	3.970	2.220	2.180	1.870	2.340	1.440	1.680	2.150	3.840	1.780	1.690	2.370	2.220	2.620	1.400	2.200	2.555	2.555	2.270	2.210	2.310	3.110	1.620	2.420	2.890	3.080	2.430	3.280	3.710	3.550	2.000	1.850	2.370	1.830	1.790	1.760	1.760	1.740	1.840	3.010	2.860	2.210	2.450	2.570	2.400	3.070	2.300	2.910	2.460	2.460	2.640	1.990	2.590	1.180	1.980	1.460	4.259	4.259	0.280	1.090	1.480	0.210	0.590	0.620	0.570	-0.000	-0.000	0.190	0.480	0.530	0.270	0.350	0.450	0.440	0.400	0.450	0.530	0.440	0.520	0.450	0.510	0.430	0.400	0.390	0.270	0.160	0.060	-0.000	0.010	-0.000	-0.000	-0.000	-0.000	-0.000	-0.000	-0.000	-0.000	-0.000	-0.000	-0.000	-0.000	-0.000	-0.000	-0.000	-0.000	-0.000	-0.000	-0.000	-0.000	-0.000	-5.000	-5.000	-5.000	-5.000	-5.000	-5.000	-5.000	-5.000	-5.000	-5.000	-5.000	-5.000	-5.000	-5.000	-5.000	-5.000	-5.000	-5.000	-5.000	-5.000	-5.000	-5.000	-5.000	-5.000	-5.000	-5.000	-5.000	-5.000	-5.000	-5.000	-5.000	-5.000	-5.000	-5.000	-5.000	-5.000	-5.000	-5.000	-5.000	-5.000	-5.000	-5.000	-5.000	-5.000	-5.000	-5.000	-5.000	-5.000	-5.000	-5.000	-5.000	-5.000	-5.000	-5.000	-5.000	-5.000	-5.000	-5.000	-5.000	-5.000	-5.000	-5.000	-5.000	-5.000	-5.000	-5.000	-5.000	-5.000	-5.000	-5.000
-5.000	-5.000	-5.000	-5.000	-5.000	-5.000	-5.000	-5.000	-5.000	-5.000	-5.000	-5.000	-5.000	-5.000	-5.000	-5.000	-5.000	-5.000	-5.000	-5.000	-5.000	-5.000	-5.000	-5.000	-5.000	-5.000	-5.000	-5.000	-5.000	-5.000	-5.000	-5.000	-5.000	-5.000	-5.000	-5.000	-5.000	-5.000	-5.000	-5.000	-5.000	-5.000	-5.000	-5.000	-5.000	-5.000	-5.000	-5.000	-5.000	-5.000	-5.000	-5.000	-5.000	-5.000	-5.000	-5.000	-5.000	-5.000	-5.000	-5.000	-5.000	-5.000	-5.000	-5.000	-5.000	-5.000	-5.000	-5.000	-5.000	-5.000	-5.000	-5.000	-5.000	-5.000	-5.000	-5.000	-5.000	-5.000	-5.000	-5.000	-5.000	-5.000	-5.000	-5.000	-5.000	-5.000	-5.000	-5.000	-5.000	-5.000	-5.000	-5.000	-5.000	-5.000	-5.000	-5.000	-5.000	-5.000	-5.000	-5.000	-5.000	-5.000	-5.000	-5.000	-5.000	-5.000	-5.000	-5.000	-5.000	-5.000	-5.000	-5.000	-5.000	-5.000	-5.000	-5.000	-0.000	-0.000	-0.000	-0.000	0.320	0.140	0.530	0.740	0.920	1.390	1.940	2.760	5.070	6.500	4.780	4.750	4.620	7.580	7.810	7.010	4.130	4.890	5.720	5.250	5.330	5.300	5.590	6.390	7.890	6.940	7.230	7.480	6.830	7.310	6.190	5.480	5.810	5.770	4.810	5.120	5.340	5.800	5.440	5.230	5.520	5.050	5.320	5.370	5.200	5.070	5.260	5.450	5.850	5.710	7.510	8.210	9.200	10.180	11.390	10.830	9.280	8.820	8.760	9.260	9.870	9.370	9.320	9.330	9.430	8.960	9.390	9.150	8.820	9.200	9.300	9.670	10.380	11.310	9.430	7.610	7.390	7.260	7.420	8.530	7.990	9.030	10.080	9.810	7.490	7.060	6.710	6.520	6.410	6.200	6.450	5.920	5.540	5.930	6.460	4.980	4.850	4.810	5.000	4.470	4.370	3.840	3.720	4.060	4.560	2.900	4.000	2.510	2.430	2.400	2.470	2.210	2.040	1.830	2.640	2.320	2.930	2.760	1.700	2.780	2.630	2.560	2.130	2.690	1.480	3.310	2.860	2.270	2.340	1.970	3.010	3.420	2.050	2.620	2.720	1.680	2.090	1.830	3.950	4.050	3.830	4.050	2.230	2.020	1.910	1.990	1.920	1.880	1.870	1.790	2.200	1.980	1.910	2.050	2.480	1.770	1.580	1.500	3.590	1.640	2.760	2.450	2.680	2.050	1.740	2.460	1.790	1.700	2.250	2.350	2.900	-5.000	0.730	2.555	2.555	1.960	2.020	2.370	2.240	1.800	2.190	3.220	1.860	1.510	1.720	2.500	2.660	2.330	2.170	2.390	1.990	1.970	1.840	2.420	2.220	1.780	2.150	1.980	2.990	2.640	3.090	2.490	2.380	2.360	3.400	2.830	2.840	2.600	2.190	2.880	1.960	2.550	4.259	4.259	0.950	0.700	0.680	0.560	0.580	0.590	0.590	0.530	-0.000	-5.000	-5.000	0.410	0.430	0.290	0.230	0.350	0.320	0.440	0.460	0.400	0.510	0.440	0.440	0.480	0.290	0.380	0.350	0.220	0.070	-0.000	-0.000	-0.000	-5.000	-0.000	0.290	0.010	-0.000	-0.000	-0.000	-0.000	-0.000	-0.000	-0.000	-0.000	-0.000	-0.000	-0.000	-0.000	-0.000	-0.000	-0.000	-0.000	-5.000	-5.000	-5.000	-5.000	-5.000	-5.000	-5.000	-5.000	-5.000	-5.000	-5.000	-5.000	-5.000	-5.000	-5.000	-5.000	-5.000	-5.000	-5.000	-5.000	-5.000	-5.000	-5.000	-5.000	-5.000	-5.000	-5.000	-5.000	-5.000	-5.000	-5.000	-5.000	-5.000	-5.000	-5.000	-5.000	-5.000	-5.000	-5.000	-5.000	-5.000	-5.000	-5.000	-5.000	-5.000	-5.000	-5.000	-5.000	-5.000	-5.000	-5.000	-5.000	-5.000	-5.000	-5.000	-5.000	-5.000	-5.000	-5.000	-5.000	-5.000	-5.000	-5.000	-5.000	-5.000	-5.000	-5.000	-5.000	-5.000	-5.000	-5.000
-5.000	-5.000	-5.000	-5.000	-5.000	-5.000	-5.000	-5.000	-5.000	-5.000	-5.000	-5.000	-5.000	-5.000	-5.000	-5.000	-5.000	-5.000	-5.000	-5.000	-5.000	-5.000	-5.000	-5.000	-5.000	-5.000	-5.000	-5.000	-5.000	-5.000	-5.000	-5.000	-5.000	-5.000	-5.000	-5.000	-5.000	-5.000	-5.000	-5.000	-5.000	-5.000	-5.000	-5.000	-5.000	-5.000	-5.000	-5.000	-5.000	-5.000	-5.000	-5.000	-5.000	-5.000	-5.000	-5.000	-5.000	-5.000	-5.000	-5.000	-5.000	-5.000	-5.000	-5.000	-5.000	-5.000	-5.000	-5.000	-5.000	-5.000	-5.000	-5.000	-5.000	-5.000	-5.000	-5.000	-5.000	-5.000	-5.000	-5.000	-5.000	-5.000	-5.000	-5.000	-5.000	-5.000	-5.000	-5.000	-5.000	-5.000	-5.000	-5.000	-5.000	-5.000	-5.000	-5.000	-5.000	-5.000	-5.000	-5.000	-5.000	-5.000	-5.000	-5.000	-5.000	-5.000	-5.000	-5.000	-5.000	-5.000	-5.000	-5.000	-5.000	-5.000	-5.000	-5.000	-0.000	-0.000	-0.000	-0.000	0.060	0.280	0.400	0.600	0.840	1.250	1.850	2.560	3.510	6.340	4.850	5.480	4.290	7.790	7.710	5.970	5.650	4.650	4.490	4.310	4.550	4.330	5.670	7.110	8.570	6.400	4.840	5.440	8.100	7.580	6.690	8.200	4.630	5.160	5.040	5.090	5.600	5.790	5.370	5.460	5.470	5.840	5.100	5.040	5.010	5.270	5.410	5.450	5.360	5.490	6.340	7.210	8.050	9.630	11.560	12.330	10.140	9.850	8.910	9.900	10.060	9.450	9.290	9.370	9.190	9.030	8.940	9.130	8.930	8.900	8.990	9.410	10.080	11.240	10.900	10.360	8.010	7.710	7.700	8.250	8.290	8.450	8.420	8.940	9.250	8.600	7.430	6.800	6.490	6.660	6.200	6.090	5.940	5.880	5.720	5.420	5.510	4.960	4.700	4.580	4.160	4.100	3.860	4.350	4.260	2.930	4.530	3.280	2.890	2.490	2.470	2.130	2.020	2.820	1.580	2.660	2.080	2.280	3.550	2.820	3.450	2.650	1.950	2.010	1.860	2.490	1.620	1.860	2.920	1.720	1.670	2.540	3.090	1.440	3.030	2.630	1.900	2.870	2.110	2.070	1.980	2.050	2.140	2.020	2.310	3.270	3.600	3.570	3.260	1.760	2.010	2.200	2.480	2.020	1.970	3.270	2.200	1.470	1.470	3.590	2.920	2.500	1.720	1.780	2.030	1.710	1.830	2.400	2.620	2.360	1.460	-5.000	2.030	2.555	2.180	3.280	2.790	2.330	2.510	1.570	1.490	2.430	2.620	2.620	2.490	2.700	2.950	3.010	3.270	3.020	2.900	2.010	2.100	2.810	1.970	1.790	2.060	2.820	3.220	2.140	1.910	3.350	2.540	2.400	2.440	2.570	2.390	2.220	2.210	2.890	2.240	2.720	4.259	1.330	0.880	0.630	0.740	0.230	0.600	0.660	0.750	0.960	0.700	-5.000	-0.000	0.050	0.270	0.250	0.410	0.340	0.410	0.390	0.440	0.380	0.380	0.480	0.310	0.390	0.250	0.360	0.270	0.280	0.140	0.120	-0.000	-0.000	-0.000	-0.000	-0.000	-0.000	-0.000	-0.000	-0.000	-0.000	-0.000	-0.000	-0.000	-0.000	-0.000	-0.000	-0.000	-0.000	-0.000	-0.000	-0.000	-5.000	-5.000	-5.000	-5.000	-5.000	-5.000	-5.000	-5.000	-5.000	-5.000	-5.000	-5.000	-5.000	-5.000	-5.000	-5.000	-5.000	-5.000	-5.000	-5.000	-5.000	-5.000	-5.000	-5.000	-5.000	-5.000	-5.000	-5.000	-5.000	-5.000	-5.000	-5.000	-5.000	-5.000	-5.000	-5.000	-5.000	-5.000	-5.000	-5.000	-5.000	-5.000	-5.000	-5.000	-5.000	-5.000	-5.000	-5.000	-5.000	-5.000	-5.000	-5.000	-5.000	-5.000	-5.000	-5.000	-5.000	-5.000	-5.000	-5.000	-5.000	-5.000	-5.000	-5.000	-5.000	-5.000	-5.000	-5.000	-5.000	-5.000	-5.000	-5.000
-5.000	-5.000	-5.000	-5.000	-5.000	-5.000	-5.000	-5.000	-5.000	-5.000	-5.000	-5.000	-5.000	-5.000	-5.000	-5.000	-5.000	-5.000	-5.000	-5.000	-5.000	-5.000	-5.000	-5.000	-5.000	-5.000	-5.000	-5.000	-5.000	-5.000	-5.000	-5.000	-5.000	-5.000	-5.000	-5.000	-5.000	-5.000	-5.000	-5.000	-5.000	-5.000	-5.000	-5.000	-5.000	-5.000	-5.000	-5.000	-5.000	-5.000	-5.000	-5.000	-5.000	-5.000	-5.000	-5.000	-5.000	-5.000	-5.000	-5.000	-5.000	-5.000	-5.000	-5.000	-5.000	-5.000	-5.000	-5.000	-5.000	-5.000	-5.000	-5.000	-5.000	-5.000	-5.000	-5.000	-5.000	-5.000	-5.000	-5.000	-5.000	-5.000	-5.000	-5.000	-5.000	-5.000	-5.000	-5.000	-5.000	-5.000	-5.000	-5.000	-5.000	-5.000	-5.000	-5.000	-5.000	-5.000	-5.000	-5.000	-5.000	-5.000	-5.000	-5.000	-5.000	-5.000	-5.000	-5.000	-5.000	-5.000	-5.000	-5.000	-5.000	-5.000	-5.000	-5.000	-0.000	-0.000	-0.000	-0.000	0.080	0.150	0.390	0.720	0.890	1.040	1.610	2.310	3.150	5.690	5.910	5.260	4.250	5.430	7.120	6.530	5.830	5.060	4.390	3.800	4.110	3.780	5.050	5.520	8.390	7.250	4.960	5.570	6.700	7.300	7.610	8.400	5.160	4.790	5.950	4.890	4.960	5.800	5.980	5.470	5.100	5.560	5.210	5.110	5.310	5.070	5.100	5.150	4.960	5.470	5.510	6.260	8.040	8.750	10.690	12.830	10.830	8.560	8.970	9.190	9.080	9.570	9.240	9.840	9.340	9.480	9.010	9.630	9.230	9.420	11.260	10.090	10.170	11.240	10.510	10.380	9.780	8.630	8.750	8.600	8.910	8.110	8.310	8.690	8.820	9.640	7.980	7.290	7.120	6.520	6.050	6.100	6.160	6.210	5.840	5.810	5.510	4.870	4.810	4.520	4.430	4.050	4.640	4.400	4.380	3.060	4.590	2.910	2.380	2.300	2.060	2.370	2.140	2.690	2.660	1.570	4.110	2.680	2.090	3.560	2.840	2.360	2.720	2.300	2.130	3.180	1.640	2.070	3.120	1.820	1.950	1.840	0.900	2.700	1.580	1.520	2.900	1.200	2.310	3.440	3.580	3.570	3.330	3.210	2.610	2.870	2.710	1.960	1.950	2.450	1.670	2.070	2.020	2.050	2.010	1.950	3.000	3.150	1.530	1.480	3.350	3.550	1.690	2.040	2.610	1.700	1.790	3.630	2.300	-5.000	-5.000	3.310	2.555	2.555	1.990	2.730	3.380	2.670	2.000	3.210	2.230	2.230	2.520	2.530	2.030	2.650	2.330	1.570	1.900	1.930	3.160	1.790	1.910	2.050	2.270	2.150	2.260	2.750	2.210	3.700	2.320	2.050	2.030	3.320	2.310	2.450	2.420	2.940	1.990	2.920	2.180	1.430	4.259	1.000	0.840	0.690	0.490	0.520	0.610	0.630	0.610	0.540	0.460	-0.000	-0.000	0.150	0.340	0.370	0.370	0.500	0.450	0.380	0.370	0.360	0.410	0.300	0.380	0.290	0.350	0.240	0.130	0.160	0.080	0.060	0.050	-0.000	-0.000	-0.000	-0.000	-0.000	-0.000	-5.000	-0.000	-0.000	-0.000	-0.000	-0.000	-0.000	-0.000	-0.000	-0.000	-0.000	-0.000	-0.000	-0.000	-5.000	-5.000	-5.000	-5.000	-5.000	-5.000	-5.000	-5.000	-5.000	-5.000	-5.000	-5.000	-5.000	-5.000	-5.000	-5.000	-5.000	-5.000	-5.000	-5.000	-5.000	-5.000	-5.000	-5.000	-5.000	-5.000	-5.000	-5.000	-5.000	-5.000	-5.000	-5.000	-5.000	-5.000	-5.000	-5.000	-5.000	-5.000	-5.000	-5.000	-5.000	-5.000	-5.000	-5.000	-5.000	-5.000	-5.000	-5.000	-5.000	-5.000	-5.000	-5.000	-5.000	-5.000	-5.000	-5.000	-5.000	-5.000	-5.000	-5.000	-5.000	-5.000	-5.000	-5.000	-5.000	-5.000	-5.000	-5.000	-5.000	-5.000	-5.000	-5.000
-5.000	-5.000	-5.000	-5.000	-5.000	-5.000	-5.000	-5.000	-5.000	-5.000	-5.000	-5.000	-5.000	-5.000	-5.000	-5.000	-5.000	-5.000	-5.000	-5.000	-5.000	-5.000	-5.000	-5.000	-5.000	-5.000	-5.000	-5.000	-5.000	-5.000	-5.000	-5.000	-5.000	-5.000	-5.000	-5.000	-5.000	-5.000	-5.000	-5.000	-5.000	-5.000	-5.000	-5.000	-5.000	-5.000	-5.000	-5.000	-5.000	-5.000	-5.000	-5.000	-5.000	-5.000	-5.000	-5.000	-5.000	-5.000	-5.000	-5.000	-5.000	-5.000	-5.000	-5.000	-5.000	-5.000	-5.000	-5.000	-5.000	-5.000	-5.000	-5.000	-5.000	-5.000	-5.000	-5.000	-5.000	-5.000	-5.000	-5.000	-5.000	-5.000	-5.000	-5.000	-5.000	-5.000	-5.000	-5.000	-5.000	-5.000	-5.000	-5.000	-5.000	-5.000	-5.000	-5.000	-5.000	-5.000	-5.000	-5.000	-5.000	-5.000	-5.000	-5.000	-5.000	-5.000	-5.000	-5.000	-5.000	-5.000	-5.000	-5.000	-5.000	-5.000	-5.000	-5.000	-5.000	-0.000	-0.000	-0.000	-0.000	0.070	0.290	0.580	0.850	1.050	1.620	2.090	3.030	6.840	6.910	6.390	5.020	4.350	5.540	6.960	6.090	5.680	4.930	4.270	5.170	3.990	5.340	5.910	6.560	7.610	5.970	4.840	5.540	6.240	7.390	7.820	7.110	4.680	5.550	5.180	4.620	5.680	5.690	5.920	5.310	5.780	5.130	4.950	5.460	5.220	5.000	5.160	5.240	5.150	5.680	5.890	6.160	7.420	9.430	11.130	8.330	10.270	9.910	9.350	9.570	8.870	8.600	9.800	9.940	9.460	9.290	10.100	9.830	11.670	10.970	10.450	10.720	10.850	11.690	10.380	9.670	9.660	9.820	9.080	8.360	8.220	8.130	8.740	8.670	9.070	8.360	8.860	6.930	6.520	6.110	5.950	6.010	6.130	5.700	5.880	5.730	5.170	5.020	4.730	4.760	4.610	4.200	4.170	3.660	2.970	4.480	3.480	3.580	2.310	2.470	2.030	2.300	2.700	2.250	3.480	1.130	3.970	2.440	2.530	2.560	2.450	2.200	2.850	2.370	2.170	2.090	3.640	2.660	1.860	1.840	1.140	3.370	1.660	1.520	2.500	2.560	1.650	2.900	2.870	2.720	2.780	2.920	2.310	2.820	2.430	3.200	3.200	2.850	2.400	1.800	3.310	2.770	3.290	3.360	2.040	2.040	2.010	3.460	1.550	1.980	2.540	1.990	1.760	2.450	1.710	1.760	0.970	1.040	2.890	2.930	2.650	2.555	2.030	2.120	1.820	2.770	3.380	2.930	2.750	1.940	2.000	2.510	2.010	2.490	2.490	2.120	1.490	1.970	1.920	3.270	1.730	1.810	2.300	2.920	2.300	2.270	2.400	2.680	2.050	2.350	3.790	2.320	2.020	2.700	3.030	2.430	2.430	2.390	3.130	3.110	3.210	4.259	1.240	0.590	0.690	0.560	0.690	0.530	0.570	0.550	0.570	0.890	0.080	-5.000	-0.000	0.270	0.210	0.400	0.520	0.360	0.250	0.360	0.450	0.390	0.280	0.410	0.290	0.210	0.260	0.280	0.150	0.130	0.060	-0.000	-0.000	-0.000	-0.000	-0.000	-0.000	-0.000	-0.000	-0.000	-0.000	-0.000	-0.000	-0.000	-0.000	-0.000	-0.000	-0.000	-0.000	-0.000	-0.000	-5.000	-5.000	-5.000	-5.000	-5.000	-5.000	-5.000	-5.000	-5.000	-5.000	-5.000	-5.000	-5.000	-5.000	-5.000	-5.000	-5.000	-5.000	-5.000	-5.000	-5.000	-5.000	-5.000	-5.000	-5.000	-5.000	-5.000	-5.000	-5.000	-5.000	-5.000	-5.000	-5.000	-5.000	-5.000	-5.000	-5.000	-5.000	-5.000	-5.000	-5.000	-5.000	-5.000	-5.000	-5.000	-5.000	-5.000	-5.000	-5.000	-5.000	-5.000	-5.000	-5.000	-5.000	-5.000	-5.000	-5.000	-5.000	-5.000	-5.000	-5.000	-5.000	-5.000	-5.000	-5.000	-5.000	-5.000	-5.000	-5.000	-5.000	-5.000	-5.000	-5.000
-5.000	-5.000	-5.000	-5.000	-5.000	-5.000	-5.000	-5.000	-5.000	-5.000	-5.000	-5.000	-5.000	-5.000	-5.000	-5.000	-5.000	-5.000	-5.000	-5.000	-5.000	-5.000	-5.000	-5.000	-5.000	-5.000	-5.000	-5.000	-5.000	-5.000	-5.000	-5.000	-5.000	-5.000	-5.000	-5.000	-5.000	-5.000	-5.000	-5.000	-5.000	-5.000	-5.000	-5.000	-5.000	-5.000	-5.000	-5.000	-5.000	-5.000	-5.000	-5.000	-5.000	-5.000	-5.000	-5.000	-5.000	-5.000	-5.000	-5.000	-5.000	-5.000	-5.000	-5.000	-5.000	-5.000	-5.000	-5.000	-5.000	-5.000	-5.000	-5.000	-5.000	-5.000	-5.000	-5.000	-5.000	-5.000	-5.000	-5.000	-5.000	-5.000	-5.000	-5.000	-5.000	-5.000	-5.000	-5.000	-5.000	-5.000	-5.000	-5.000	-5.000	-5.000	-5.000	-5.000	-5.000	-5.000	-5.000	-5.000	-5.000	-5.000	-5.000	-5.000	-5.000	-5.000	-5.000	-5.000	-5.000	-5.000	-5.000	-5.000	-5.000	-5.000	-5.000	-5.000	-5.000	-0.000	-0.000	-0.000	-0.000	0.180	0.260	0.660	0.800	0.980	1.440	2.100	2.820	4.110	5.510	6.250	5.470	6.900	5.200	7.120	7.120	6.110	4.890	4.750	6.020	4.860	5.370	6.770	5.960	6.630	6.930	5.060	5.810	6.470	8.240	7.750	8.000	4.660	4.940	5.570	4.920	5.040	5.570	5.690	6.010	5.240	5.390	5.330	5.040	5.260	5.300	5.070	5.280	5.410	5.340	5.850	5.640	6.010	8.330	7.920	11.000	9.620	10.970	9.570	9.770	9.990	10.300	10.160	10.030	9.510	9.100	9.200	9.440	11.130	11.030	10.820	10.730	11.040	12.100	11.700	11.100	10.680	10.280	10.830	10.370	10.070	9.060	8.760	8.800	8.700	10.350	7.860	7.230	6.410	6.300	6.330	6.520	6.150	6.050	5.800	5.800	5.330	5.170	5.090	4.760	4.470	4.460	4.230	3.480	3.210	3.220	3.180	3.280	2.470	2.320	2.040	1.990	2.110	3.410	2.230	3.140	1.300	3.180	3.510	2.590	2.410	2.370	2.310	2.760	2.180	2.130	2.000	2.900	2.130	2.940	1.070	1.540	1.500	3.130	2.630	2.580	1.630	2.780	2.790	2.880	3.100	2.700	3.170	2.870	2.340	2.330	2.450	2.370	3.150	2.180	2.200	3.200	2.090	2.130	3.120	2.020	2.400	2.390	2.690	2.850	1.450	1.670	2.120	1.850	1.800	2.430	-5.000	3.060	2.890	2.310	2.120	2.555	1.710	2.290	2.280	2.070	3.120	3.600	2.800	2.540	1.950	1.980	2.930	2.070	2.890	2.100	1.790	1.910	1.960	3.110	1.780	1.960	2.660	2.020	2.150	2.420	2.310	2.950	2.970	2.170	2.050	2.410	2.570	2.210	2.220	3.130	4.259	4.259	4.259	4.259	4.259	4.259	1.420	0.670	0.670	0.710	0.650	0.630	0.570	0.460	0.670	0.940	0.510	-5.000	-0.000	0.150	0.170	0.440	0.300	0.440	0.310	0.360	0.410	0.230	0.310	0.340	0.270	0.240	0.220	0.090	0.120	0.180	0.070	0.060	-0.000	-0.000	-0.000	-0.000	-0.000	-0.000	-0.000	-0.000	0.070	-0.000	-0.000	-0.000	-0.000	-0.000	-0.000	-0.000	-0.000	-0.000	-0.000	-5.000	-5.000	-5.000	-5.000	-5.000	-5.000	-5.000	-5.000	-5.000	-5.000	-5.000	-5.000	-5.000	-5.000	-5.000	-5.000	-5.000	-5.000	-5.000	-5.000	-5.000	-5.000	-5.000	-5.000	-5.000	-5.000	-5.000	-5.000	-5.000	-5.000	-5.000	-5.000	-5.000	-5.000	-5.000	-5.000	-5.000	-5.000	-5.000	-5.000	-5.000	-5.000	-5.000	-5.000	-5.000	-5.000	-5.000	-5.000	-5.000	-5.000	-5.000	-5.000	-5.000	-5.000	-5.000	-5.000	-5.000	-5.000	-5.000	-5.000	-5.000	-5.000	-5.000	-5.000	-5.000	-5.000	-5.000	-5.000	-5.000	-5.000	-5.000	-5.000	-5.000
-5.000	-5.000	-5.000	-5.000	-5.000	-5.000	-5.000	-5.000	-5.000	-5.000	-5.000	-5.000	-5.000	-5.000	-5.000	-5.000	-5.000	-5.000	-5.000	-5.000	-5.000	-5.000	-5.000	-5.000	-5.000	-5.000	-5.000	-5.000	-5.000	-5.000	-5.000	-5.000	-5.000	-5.000	-5.000	-5.000	-5.000	-5.000	-5.000	-5.000	-5.000	-5.000	-5.000	-5.000	-5.000	-5.000	-5.000	-5.000	-5.000	-5.000	-5.000	-5.000	-5.000	-5.000	-5.000	-5.000	-5.000	-5.000	-5.000	-5.000	-5.000	-5.000	-5.000	-5.000	-5.000	-5.000	-5.000	-5.000	-5.000	-5.000	-5.000	-5.000	-5.000	-5.000	-5.000	-5.000	-5.000	-5.000	-5.000	-5.000	-5.000	-5.000	-5.000	-5.000	-5.000	-5.000	-5.000	-5.000	-5.000	-5.000	-5.000	-5.000	-5.000	-5.000	-5.000	-5.000	-5.000	-5.000	-5.000	-5.000	-5.000	-5.000	-5.000	-5.000	-5.000	-5.000	-5.000	-5.000	-5.000	-5.000	-5.000	-5.000	-5.000	-5.000	-5.000	-5.000	-5.000	-0.000	-0.000	-0.000	-0.000	0.050	0.180	0.450	0.620	0.940	1.310	1.910	2.450	3.550	5.800	7.060	7.670	7.330	5.500	6.940	6.500	5.470	5.340	5.350	5.970	5.690	5.850	5.420	5.790	5.940	5.790	5.690	5.770	7.600	7.140	6.760	8.240	4.520	5.160	5.550	5.050	5.030	5.520	5.480	5.890	5.950	5.860	5.360	4.860	5.270	5.400	4.980	5.450	4.740	5.290	5.510	5.190	5.850	6.990	8.430	9.600	10.980	11.290	10.820	10.550	10.260	9.770	8.650	9.650	9.550	9.260	9.300	9.180	10.640	11.920	12.390	12.680	11.520	12.060	11.630	12.020	11.340	10.690	11.540	10.240	10.750	10.790	10.420	9.560	8.830	9.090	8.320	7.290	7.140	6.860	6.640	6.410	6.440	6.480	6.300	5.830	5.470	5.250	5.290	4.660	4.360	4.310	4.020	3.800	4.700	3.170	2.590	2.500	2.510	2.170	2.520	2.380	3.440	2.190	2.080	1.870	2.320	1.330	3.270	0.440	3.460	2.300	2.430	2.350	2.550	2.280	2.250	2.140	2.340	1.780	1.730	1.490	3.300	2.420	4.090	1.830	3.050	2.480	2.980	2.800	2.370	2.800	3.040	3.270	2.590	2.420	2.480	2.400	2.780	2.730	2.360	2.740	2.310	2.090	2.110	2.140	2.760	1.720	1.860	1.710	3.360	2.850	2.600	1.810	1.770	3.190	0.630	2.390	2.300	2.620	2.555	2.555	1.830	2.000	1.880	2.610	2.150	3.910	3.680	2.680	2.790	2.370	1.890	2.140	2.410	1.930	2.340	2.610	1.850	3.680	1.940	2.100	2.660	2.030	2.110	2.140	2.120	2.050	2.050	2.110	2.160	1.980	2.370	2.740	2.300	2.450	4.259	1.840	1.090	1.600	2.010	1.800	1.160	0.640	0.570	0.510	0.570	0.530	0.610	0.570	0.520	0.440	0.490	-0.000	-0.000	0.180	0.240	0.240	0.290	0.370	0.320	0.280	0.100	0.260	0.260	0.330	0.340	0.180	0.140	0.130	0.070	0.170	0.150	-5.000	-0.000	-0.000	-0.000	-0.000	-0.000	-0.000	-0.000	-0.000	-0.000	-0.000	-0.000	-0.000	-0.000	-0.000	-0.000	-0.000	-0.000	-0.000	-5.000	-5.000	-5.000	-5.000	-5.000	-5.000	-5.000	-5.000	-5.000	-5.000	-5.000	-5.000	-5.000	-5.000	-5.000	-5.000	-5.000	-5.000	-5.000	-5.000	-5.000	-5.000	-5.000	-5.000	-5.000	-5.000	-5.000	-5.000	-5.000	-5.000	-5.000	-5.000	-5.000	-5.000	-5.000	-5.000	-5.000	-5.000	-5.000	-5.000	-5.000	-5.000	-5.000	-5.000	-5.000	-5.000	-5.000	-5.000	-5.000	-5.000	-5.000	-5.000	-5.000	-5.000	-5.000	-5.000	-5.000	-5.000	-5.000	-5.000	-5.000	-5.000	-5.000	-5.000	-5.000	-5.000	-5.000	-5.000	-5.000	-5.000	-5.000	-5.000	-5.000	-5.000
