ncols         460
nrows         26
xllcorner     370817.146667
yllcorner     6536165.68802
cellsize      20
NODATA_value  -9999
-0.8995 -0.90114 -0.90278 -0.90442 -0.90607 -0.90771 -0.90935 -0.89566 -0.87851 -0.86137 -0.84422 -0.84422 -0.80993 -0.79279 -0.77564 -0.7585 -0.74135 -0.72421 -0.72343 -0.72875 -0.73408 -0.7394 -0.74473 -0.76901 -0.80644 -0.84387 -0.8813 -0.8813 -0.95615 -0.99358 -1.031 -1.0684 -1.0921 -1.0941 -1.0961 -1.0981 -1.1001 -1.1021 -1.1041 -1.1061 -1.1083 -1.1191 -1.1298 -1.1514 -1.1514 -1.1622 -1.1593 -1.1475 -1.1356 -1.1238 -1.1119 -1.1001 -1.0882 -1.0764 -1.0645 -1.0526 -1.045 -1.0488 -1.0526 -1.0622 -1.0622 -1.0726 -1.0829 -1.1003 -1.1239 -1.1475 -1.1711 -1.1946 -1.2182 -1.2418 -1.2654 -1.2889 -1.3125 -1.3361 -1.3597 -1.3447 -1.3447 -1.3369 -1.3292 -1.3214 -1.3137 -1.3059 -1.2982 -1.2904 -1.2826 -1.2749 -1.2715 -1.2757 -1.2856 -1.3184 -1.3511 -1.4153 -1.4153 -1.4473 -1.4794 -1.5115 -1.5435 -1.5756 -1.6076 -1.6397 -1.6718 -1.7038 -1.7256 -1.7423 -1.759 -1.7757 -1.7924 -1.8258 -1.8258 -1.8425 -1.8592 -1.8759 -1.8926 -1.9058 -1.8995 -1.8922 -1.8747 -1.8565 -1.8315 -1.8065 -1.7815 -1.7566 -1.7316 -1.7066 -1.7066 -1.6566 -1.6316 -1.6067 -1.5817 -1.5733 -1.5874 -1.6016 -1.6157 -1.6299 -1.6441 -1.6582 -1.6724 -1.6866 -1.7007 -1.7149 -1.7149 -1.7445 -1.7608 -1.7752 -1.796 -1.82 -1.8441 -1.8682 -1.8922 -1.9163 -1.9404 -1.9644 -1.9885 -2.0126 -2.0367 -2.0628 -2.0628 -2.1336 -2.169 -2.2044 -2.2399 -2.2753 -2.3107 -2.3461 -2.3815 -2.4169 -2.4523 -2.4752 -2.4804 -2.4846 -2.4855 -2.4864 -2.4864 -2.4883 -2.4892 -2.4902 -2.4911 -2.4921 -2.493 -2.4939 -2.4949 -2.4902 -2.485 -2.4797 -2.4744 -2.4691 -2.4639 -2.4586 -2.514 -2.514 -2.5765 -2.6391 -2.7017 -2.7598 -2.7988 -2.8377 -2.8766 -2.9155 -2.9544 -2.9933 -3.0357 -3.0873 -3.139 -3.1906 -3.2939 -3.2939 -3.3261 -3.3487 -3.3712 -3.3938 -3.4447 -3.5062 -3.5677 -3.6292 -3.6908 -3.7523 -3.8138 -3.8753 -3.9347 -3.9909 -4.1032 -4.1032 -4.1594 -4.2155 -4.2717 -4.3279 -4.384 -4.4402 -4.4963 -4.5525 -4.5908 -4.577 -4.5632 -4.5493 -4.5355 -4.5217 -4.494 -4.494 -4.4802 -4.4664 -4.4526 -4.4388 -4.4249 -4.4316 -4.5261 -4.6205 -4.715 -4.8095 -4.904 -5.0501 -5.2264 -5.4026 -5.5789 -5.5789 -5.9315 -6.1078 -6.2841 -6.4604 -6.646 -6.8775 -7.109 -7.3405 -7.572 -7.7886 -7.9534 -8.1182 -8.283 -8.4479 -8.6127 -8.6127 -8.9423 -9.1071 -9.2723 -9.4893 -9.7062 -9.9232 -10.131 -10.071 -10.011 -9.9503 -9.8902 -9.83 -9.7699 -9.7097 -9.6495 -9.6495 -9.542 -9.5125 -9.4831 -9.449 -9.3157 -9.1823 -9.049 -8.9157 -8.7824 -8.6491 -8.5158 -8.3825 -8.2492 -8.1072 -7.9061 -7.9061 -7.5039 -7.4575 -7.436 -7.4145 -7.3929 -7.3714 -7.3499 -7.3284 -7.3068 -7.2853 -7.2715 -7.376 -7.4806 -7.5851 -7.683 -7.8524 -7.8524 -7.9371 -8.0218 -8.1065 -8.1912 -8.2759 -8.3607 -8.444 -8.5265 -8.6089 -8.6914 -8.7739 -8.835 -8.8611 -8.8871 -8.9392 -8.9392 -8.9653 -9.0395 -9.1159 -9.1924 -9.2689 -9.3453 -9.4218 -9.4983 -9.5747 -9.6594 -9.745 -9.767 -9.775 -9.783 -9.8487 -9.8487 -9.8822 -9.9156 -9.9491 -9.9826 -10.016 -10.049 -10.097 -10.161 -10.225 -10.288 -10.352 -10.37 -10.373 -10.376 -10.383 -10.383 -10.386 -10.389 -10.396 -10.429 -10.463 -10.496 -10.53 -10.563 -10.597 -10.631 -10.664 -10.698 -10.731 -10.792 -10.873 -10.873 -10.931 -10.907 -10.883 -10.859 -10.836 -10.812 -10.788 -10.771 -10.766 -10.76 -10.755 -10.75 -10.744 -10.754 -10.82 -10.82 -10.878 -10.893 -10.907 -10.922 -10.936 -10.951 -10.966 -10.98 -10.995 -11.009 -11.024 -11.038 -11.086 -11.149 -11.213 -11.213 -11.342 -11.408 -11.473 -11.539 -11.604 -11.67 -11.736 -11.801 -11.867 -11.932 -11.998 -12.049 -12.084 -12.118 -12.158 -12.158 -12.256 -12.304 -12.353 -12.402 -12.45 -12.499 -12.547 -12.596 -12.645 -12.693 -12.742 -12.729 -12.691 -12.707 -12.743 -12.743 -12.815 -12.851 -12.887 -12.923 -12.959 -12.995 -13.031 -13.067 -13.103 -13.139 -13.175 -13.148 -13.123
-0.92603 -0.92217 -0.92382 -0.92546 -0.9271 -0.92874 -0.92468 -0.90753 -0.89039 -0.87324 -0.8561 -0.8561 -0.82181 -0.80466 -0.78752 -0.77037 -0.75323 -0.73608 -0.7231 -0.72842 -0.73375 -0.73907 -0.75853 -0.79596 -0.83339 -0.87082 -0.90824 -0.90824 -0.9831 -1.0205 -1.058 -1.0954 -1.1294 -1.1314 -1.1334 -1.1355 -1.1375 -1.1395 -1.1415 -1.1448 -1.1556 -1.1664 -1.1772 -1.1987 -1.1987 -1.2095 -1.2095 -1.1977 -1.1858 -1.174 -1.1621 -1.1502 -1.1384 -1.1265 -1.1147 -1.1028 -1.091 -1.0791 -1.0672 -1.0723 -1.0723 -1.0855 -1.1091 -1.1326 -1.1562 -1.1798 -1.2034 -1.2269 -1.2505 -1.2741 -1.2977 -1.3212 -1.3448 -1.3684 -1.3916 -1.3761 -1.3761 -1.3684 -1.3606 -1.3529 -1.3451 -1.3374 -1.3296 -1.3218 -1.3141 -1.3063 -1.2986 -1.2908 -1.2993 -1.3315 -1.3636 -1.4277 -1.4277 -1.4598 -1.4919 -1.5239 -1.556 -1.588 -1.6201 -1.6522 -1.6842 -1.7163 -1.7376 -1.7543 -1.771 -1.7877 -1.8044 -1.8377 -1.8377 -1.8544 -1.8711 -1.8878 -1.9045 -1.9212 -1.9379 -1.9438 -1.9203 -1.8953 -1.8703 -1.8454 -1.8204 -1.7954 -1.7704 -1.7454 -1.7454 -1.6955 -1.6705 -1.6455 -1.6205 -1.6131 -1.6273 -1.6415 -1.6556 -1.6698 -1.684 -1.6981 -1.7123 -1.7265 -1.7406 -1.7548 -1.7548 -1.7831 -1.7988 -1.8239 -1.8479 -1.872 -1.8961 -1.9201 -1.9442 -1.9683 -1.9923 -2.0164 -2.0405 -2.0646 -2.0886 -2.1145 -2.1145 -2.1853 -2.2207 -2.2561 -2.2915 -2.3269 -2.3624 -2.3978 -2.4332 -2.4686 -2.4769 -2.4789 -2.4837 -2.491 -2.4984 -2.5038 -2.5038 -2.5057 -2.5066 -2.5076 -2.5085 -2.5094 -2.5104 -2.5113 -2.5123 -2.5082 -2.5029 -2.4976 -2.4923 -2.4871 -2.4818 -2.4988 -2.624 -2.624 -2.6865 -2.7491 -2.8117 -2.8719 -2.9108 -2.9497 -2.9886 -3.0275 -3.0665 -3.1054 -3.1443 -3.1832 -3.2233 -3.275 -3.3783 -3.3783 -3.4124 -3.4349 -3.4632 -3.5247 -3.5862 -3.6477 -3.7093 -3.7708 -3.8323 -3.8938 -3.9553 -4.0168 -4.0767 -4.1328 -4.2452 -4.2452 -4.3013 -4.3575 -4.4137 -4.4698 -4.526 -4.5821 -4.6383 -4.6987 -4.7626 -4.772 -4.7813 -4.7715 -4.7577 -4.7439 -4.7162 -4.7162 -4.7024 -4.6886 -4.6748 -4.661 -4.6471 -4.6333 -4.7157 -4.8102 -4.9046 -4.9991 -5.1174 -5.2937 -5.47 -5.6462 -5.8225 -5.8225 -6.1751 -6.3514 -6.5277 -6.704 -6.8802 -7.089 -7.3205 -7.552 -7.7835 -7.9629 -8.1278 -8.2926 -8.4574 -8.6222 -8.787 -8.787 -9.1167 -9.2815 -9.4463 -9.632 -9.849 -10.066 -10.117 -10.057 -9.9969 -9.9368 -9.8766 -9.8165 -9.7563 -9.6961 -9.636 -9.636 -9.5156 -9.4811 -9.4516 -9.3558 -9.2225 -9.0892 -8.9559 -8.8226 -8.6893 -8.556 -8.4226 -8.2893 -8.156 -8.0227 -7.85 -7.85 -7.5375 -7.5159 -7.4944 -7.4729 -7.4513 -7.4298 -7.4083 -7.3868 -7.3652 -7.3437 -7.3222 -7.3732 -7.4777 -7.581 -7.6657 -7.8351 -7.8351 -7.9198 -8.0045 -8.0892 -8.1739 -8.2586 -8.3433 -8.4274 -8.5099 -8.5924 -8.6749 -8.7385 -8.7646 -8.7906 -8.8167 -8.8688 -8.8688 -8.8948 -8.9633 -9.0397 -9.1162 -9.1927 -9.2691 -9.3456 -9.4221 -9.4985 -9.575 -9.6533 -9.6813 -9.7148 -9.7483 -9.8152 -9.8152 -9.8486 -9.8821 -9.9156 -9.949 -9.9825 -10.016 -10.071 -10.135 -10.198 -10.262 -10.326 -10.39 -10.411 -10.414 -10.421 -10.421 -10.424 -10.427 -10.442 -10.475 -10.509 -10.542 -10.576 -10.61 -10.643 -10.677 -10.71 -10.744 -10.777 -10.811 -10.871 -10.871 -10.897 -10.873 -10.849 -10.836 -10.831 -10.825 -10.82 -10.815 -10.809 -10.804 -10.798 -10.793 -10.788 -10.824 -10.89 -10.89 -10.985 -11.0 -11.015 -11.029 -11.044 -11.058 -11.073 -11.087 -11.102 -11.116 -11.131 -11.154 -11.218 -11.281 -11.344 -11.344 -11.472 -11.538 -11.604 -11.669 -11.735 -11.8 -11.866 -11.931 -11.997 -12.063 -12.124 -12.159 -12.194 -12.229 -12.263 -12.263 -12.359 -12.408 -12.457 -12.505 -12.554 -12.603 -12.651 -12.7 -12.749 -12.797 -12.81 -12.772 -12.735 -12.717 -12.754 -12.754 -12.826 -12.862 -12.898 -12.934 -12.97 -13.006 -13.042 -13.078 -13.114 -13.15 -13.149 -13.097 -13.059
-0.95501 -0.94733 -0.94485 -0.94649 -0.94813 -0.94977 -0.93655 -0.91941 -0.90226 -0.88512 -0.86797 -0.86797 -0.83368 -0.81654 -0.79939 -0.78225 -0.7651 -0.74796 -0.73081 -0.72809 -0.73342 -0.74805 -0.78548 -0.82291 -0.86033 -0.89776 -0.93519 -0.93519 -1.01 -1.0475 -1.0849 -1.1223 -1.1598 -1.1688 -1.1708 -1.1728 -1.1748 -1.1768 -1.1814 -1.1921 -1.2029 -1.2137 -1.2245 -1.246 -1.246 -1.2568 -1.2597 -1.2478 -1.236 -1.2241 -1.2123 -1.2004 -1.1886 -1.1767 -1.1649 -1.153 -1.1411 -1.1293 -1.1174 -1.088 -1.088 -1.1178 -1.1414 -1.165 -1.1885 -1.2121 -1.2357 -1.2593 -1.2828 -1.3064 -1.33 -1.3536 -1.3771 -1.4007 -1.4231 -1.4076 -1.4076 -1.3998 -1.3921 -1.3843 -1.3765 -1.3688 -1.361 -1.3533 -1.3455 -1.3378 -1.33 -1.3204 -1.3198 -1.344 -1.3761 -1.4402 -1.4402 -1.4723 -1.5043 -1.5364 -1.5685 -1.6005 -1.6326 -1.6646 -1.6967 -1.7288 -1.7495 -1.7662 -1.7829 -1.7996 -1.8163 -1.8497 -1.8497 -1.8664 -1.8831 -1.8998 -1.9165 -1.9332 -1.9526 -1.9699 -1.9559 -1.9341 -1.9092 -1.8842 -1.8592 -1.8342 -1.8092 -1.7842 -1.7842 -1.7343 -1.7093 -1.6843 -1.6593 -1.653 -1.6672 -1.6814 -1.6955 -1.7097 -1.7239 -1.738 -1.7522 -1.7663 -1.7805 -1.7947 -1.7947 -1.8202 -1.8339 -1.8672 -1.8999 -1.924 -1.948 -1.9721 -1.9962 -2.0202 -2.0443 -2.0684 -2.0924 -2.1165 -2.1406 -2.1661 -2.1661 -2.237 -2.2724 -2.3078 -2.3432 -2.3786 -2.414 -2.4494 -2.4766 -2.4786 -2.4806 -2.4826 -2.487 -2.4944 -2.5017 -2.5091 -2.5091 -2.5231 -2.524 -2.525 -2.5259 -2.5268 -2.5278 -2.5287 -2.5296 -2.5261 -2.5208 -2.5155 -2.5102 -2.505 -2.5462 -2.6088 -2.734 -2.734 -2.7965 -2.8591 -2.9217 -2.9839 -3.0228 -3.0617 -3.1007 -3.1396 -3.1785 -3.2174 -3.2563 -3.2952 -3.3342 -3.3731 -3.4626 -3.4626 -3.4986 -3.5432 -3.6047 -3.6662 -3.7278 -3.7893 -3.8508 -3.9123 -3.9738 -4.0353 -4.0969 -4.1584 -4.2186 -4.2748 -4.3871 -4.3871 -4.4433 -4.4994 -4.5556 -4.6118 -4.6679 -4.7241 -4.789 -4.8566 -4.9242 -4.9342 -4.9436 -4.9529 -4.9623 -4.9661 -4.9384 -4.9384 -4.9246 -4.9108 -4.897 -4.8832 -4.8693 -4.8555 -4.9053 -4.9998 -5.0942 -5.1887 -5.361 -5.5373 -5.7136 -5.8898 -6.0661 -6.0661 -6.4187 -6.595 -6.7713 -6.9476 -7.1238 -7.3004 -7.5319 -7.7634 -7.9725 -8.1373 -8.3021 -8.4669 -8.6318 -8.7966 -8.9614 -8.9614 -9.291 -9.4559 -9.6207 -9.7855 -9.9917 -10.164 -10.104 -10.044 -9.9834 -9.9232 -9.863 -9.8029 -9.7427 -9.6826 -9.6224 -9.6224 -9.5021 -9.4497 -9.396 -9.2627 -9.1293 -8.996 -8.8627 -8.7294 -8.5961 -8.4628 -8.3295 -8.1962 -8.0629 -7.9296 -7.7939 -7.7939 -7.5958 -7.5743 -7.5528 -7.5313 -7.5097 -7.4882 -7.4667 -7.4451 -7.4236 -7.4021 -7.3806 -7.3703 -7.4748 -7.5636 -7.6483 -7.8177 -7.8177 -7.9024 -7.9871 -8.0719 -8.1566 -8.2413 -8.326 -8.4107 -8.4933 -8.5758 -8.642 -8.6681 -8.6941 -8.7202 -8.7462 -8.7983 -8.7983 -8.8244 -8.8871 -8.9636 -9.04 -9.1165 -9.193 -9.2694 -9.3459 -9.4224 -9.4984 -9.574 -9.6478 -9.6813 -9.7147 -9.7817 -9.7817 -9.8151 -9.8486 -9.8821 -9.9155 -9.949 -9.9824 -10.045 -10.109 -10.172 -10.236 -10.3 -10.363 -10.427 -10.452 -10.459 -10.459 -10.462 -10.465 -10.488 -10.521 -10.555 -10.588 -10.622 -10.656 -10.689 -10.723 -10.756 -10.79 -10.823 -10.857 -10.89 -10.89 -10.895 -10.89 -10.885 -10.879 -10.874 -10.869 -10.863 -10.858 -10.853 -10.847 -10.842 -10.836 -10.831 -10.894 -10.959 -10.959 -11.091 -11.107 -11.122 -11.136 -11.151 -11.166 -11.18 -11.195 -11.209 -11.224 -11.238 -11.286 -11.349 -11.412 -11.476 -11.476 -11.603 -11.668 -11.734 -11.799 -11.865 -11.931 -11.996 -12.062 -12.127 -12.193 -12.235 -12.269 -12.304 -12.339 -12.374 -12.374 -12.463 -12.512 -12.561 -12.609 -12.658 -12.707 -12.755 -12.804 -12.852 -12.89 -12.853 -12.815 -12.778 -12.74 -12.764 -12.764 -12.836 -12.872 -12.908 -12.944 -12.98 -13.016 -13.052 -13.088 -13.124 -13.15 -13.098 -13.045 -12.995
-0.98398 -0.9763 -0.96863 -0.96752 -0.96917 -0.96557 -0.94843 -0.93128 -0.91414 -0.89699 -0.87985 -0.87985 -0.84556 -0.82841 -0.81127 -0.79412 -0.77698 -0.75983 -0.74269 -0.72776 -0.73757 -0.775 -0.81243 -0.84985 -0.88728 -0.92471 -0.96214 -0.96214 -1.037 -1.0744 -1.1119 -1.1493 -1.1867 -1.2061 -1.2081 -1.2101 -1.2121 -1.2179 -1.2287 -1.2395 -1.2503 -1.261 -1.2718 -1.2934 -1.2934 -1.3041 -1.3099 -1.298 -1.2862 -1.2743 -1.2625 -1.2506 -1.2387 -1.2269 -1.215 -1.2032 -1.1913 -1.1795 -1.1621 -1.0988 -1.0988 -1.134 -1.1693 -1.1973 -1.2208 -1.2444 -1.268 -1.2916 -1.3152 -1.3387 -1.3623 -1.3859 -1.4095 -1.433 -1.4545 -1.439 -1.439 -1.4312 -1.4235 -1.4157 -1.408 -1.4002 -1.3925 -1.3847 -1.377 -1.3681 -1.3569 -1.3457 -1.3465 -1.3701 -1.3938 -1.4527 -1.4527 -1.4847 -1.5168 -1.5489 -1.5809 -1.613 -1.6451 -1.6771 -1.7092 -1.7412 -1.7615 -1.7782 -1.7949 -1.8116 -1.8283 -1.8617 -1.8617 -1.8783 -1.895 -1.9117 -1.9298 -1.9517 -1.9737 -1.9898 -1.9759 -1.962 -1.948 -1.923 -1.898 -1.873 -1.8481 -1.8231 -1.8231 -1.7731 -1.7481 -1.7231 -1.6982 -1.6929 -1.7071 -1.7213 -1.7354 -1.7496 -1.7638 -1.7779 -1.7921 -1.8062 -1.8204 -1.8328 -1.8328 -1.8554 -1.869 -1.9023 -1.9356 -1.9689 -2.0 -2.0241 -2.0481 -2.0722 -2.0963 -2.1203 -2.1444 -2.1685 -2.1925 -2.2178 -2.2178 -2.2886 -2.324 -2.3594 -2.3949 -2.4303 -2.4657 -2.4783 -2.4803 -2.4823 -2.4843 -2.4864 -2.4904 -2.4977 -2.505 -2.5124 -2.5124 -2.5271 -2.5344 -2.5418 -2.5433 -2.5442 -2.5452 -2.5461 -2.547 -2.544 -2.5387 -2.5334 -2.5311 -2.5937 -2.6562 -2.7188 -2.844 -2.844 -2.9065 -2.9691 -3.0317 -3.0942 -3.1349 -3.1738 -3.2127 -3.2516 -3.2905 -3.3294 -3.3684 -3.4073 -3.4462 -3.4851 -3.5629 -3.5629 -3.621 -3.6847 -3.7463 -3.8078 -3.8693 -3.9308 -3.9923 -4.0538 -4.1154 -4.1769 -4.2384 -4.2999 -4.3606 -4.4167 -4.5291 -4.5291 -4.5852 -4.6414 -4.6976 -4.7537 -4.8118 -4.8793 -4.9469 -5.0145 -5.082 -5.0965 -5.1058 -5.1152 -5.1245 -5.1339 -5.1526 -5.1526 -5.1468 -5.133 -5.1192 -5.1053 -5.0915 -5.0777 -5.0949 -5.1894 -5.2839 -5.4283 -5.6046 -5.7809 -5.9572 -6.1334 -6.3097 -6.3097 -6.6623 -6.8386 -7.0149 -7.1912 -7.3674 -7.5437 -7.7433 -7.9748 -8.1468 -8.3117 -8.4765 -8.6413 -8.8061 -8.9709 -9.1358 -9.1358 -9.4654 -9.6302 -9.7951 -9.9599 -10.134 -10.15 -10.09 -10.03 -9.9698 -9.9096 -9.8495 -9.7893 -9.7292 -9.669 -9.6084 -9.6084 -9.4787 -9.4138 -9.2998 -9.1663 -9.0328 -8.8993 -8.7659 -8.6324 -8.4989 -8.3654 -8.2319 -8.0984 -7.9649 -7.8315 -7.698 -7.698 -7.6367 -7.6172 -7.5977 -7.5782 -7.5587 -7.5392 -7.5197 -7.5002 -7.4807 -7.4605 -7.4389 -7.4174 -7.4616 -7.5463 -7.631 -7.8004 -7.8004 -7.8851 -7.9698 -8.0545 -8.1392 -8.2239 -8.3086 -8.3933 -8.4768 -8.5455 -8.5716 -8.5976 -8.6237 -8.6497 -8.6758 -8.7279 -8.7279 -8.7539 -8.8109 -8.8874 -8.9639 -9.0403 -9.1168 -9.1933 -9.2692 -9.3451 -9.421 -9.4961 -9.5701 -9.6441 -9.6812 -9.7481 -9.7481 -9.7816 -9.8151 -9.8485 -9.882 -9.9155 -9.955 -10.019 -10.082 -10.146 -10.21 -10.273 -10.337 -10.401 -10.465 -10.496 -10.496 -10.5 -10.503 -10.534 -10.567 -10.601 -10.634 -10.668 -10.702 -10.735 -10.769 -10.802 -10.827 -10.843 -10.858 -10.874 -10.874 -10.939 -10.933 -10.928 -10.923 -10.917 -10.912 -10.907 -10.901 -10.896 -10.891 -10.885 -10.88 -10.898 -10.964 -11.029 -11.029 -11.16 -11.215 -11.229 -11.244 -11.258 -11.273 -11.287 -11.302 -11.316 -11.331 -11.354 -11.417 -11.481 -11.544 -11.607 -11.607 -11.734 -11.799 -11.864 -11.93 -11.995 -12.061 -12.126 -12.192 -12.258 -12.31 -12.345 -12.38 -12.414 -12.449 -12.484 -12.484 -12.567 -12.616 -12.664 -12.713 -12.762 -12.81 -12.859 -12.908 -12.956 -12.934 -12.896 -12.859 -12.821 -12.784 -12.774 -12.774 -12.846 -12.882 -12.919 -12.955 -12.991 -13.027 -13.063 -13.099 -13.135 -13.098 -13.046 -12.994 -12.942
-1.013 -1.0053 -0.9976 -0.98992 -0.9902 -0.97744 -0.9603 -0.94315 -0.92601 -0.90886 -0.89172 -0.89172 -0.85743 -0.84029 -0.82314 -0.806 -0.78902 -0.77204 -0.75507 -0.73809 -0.76051 -0.80101 -0.83937 -0.8768 -0.91423 -0.95166 -0.98909 -0.98909 -1.0639 -1.1014 -1.1388 -1.1762 -1.2137 -1.2434 -1.2454 -1.2474 -1.2545 -1.2652 -1.276 -1.2868 -1.2976 -1.3084 -1.3191 -1.3407 -1.3407 -1.3515 -1.3601 -1.3482 -1.3363 -1.3245 -1.3126 -1.3008 -1.2889 -1.2771 -1.2652 -1.2534 -1.2415 -1.2132 -1.1749 -1.1095 -1.1095 -1.1448 -1.18 -1.2153 -1.2505 -1.2767 -1.3003 -1.3239 -1.3475 -1.371 -1.3946 -1.4182 -1.4418 -1.4653 -1.4859 -1.4704 -1.4704 -1.4627 -1.4549 -1.4472 -1.4394 -1.4317 -1.4239 -1.4158 -1.4046 -1.3934 -1.3822 -1.371 -1.3731 -1.3967 -1.4204 -1.4677 -1.4677 -1.4972 -1.5293 -1.5613 -1.5934 -1.6255 -1.6575 -1.6896 -1.7217 -1.7537 -1.7734 -1.7901 -1.8068 -1.8235 -1.8402 -1.8736 -1.8736 -1.8903 -1.907 -1.9289 -1.9509 -1.9728 -1.9947 -2.0098 -1.9959 -1.9819 -1.968 -1.9541 -1.9368 -1.9119 -1.8869 -1.8619 -1.8619 -1.8119 -1.7869 -1.762 -1.737 -1.7328 -1.747 -1.7612 -1.7753 -1.7895 -1.8037 -1.8178 -1.832 -1.8453 -1.8566 -1.8679 -1.8679 -1.8905 -1.904 -1.9373 -1.9707 -2.004 -2.0373 -2.0706 -2.1001 -2.1242 -2.1482 -2.1723 -2.1964 -2.2204 -2.2445 -2.2695 -2.2695 -2.3403 -2.3757 -2.4111 -2.4465 -2.4779 -2.48 -2.482 -2.484 -2.486 -2.4881 -2.4901 -2.4937 -2.501 -2.5084 -2.5157 -2.5157 -2.5304 -2.5378 -2.5451 -2.5524 -2.5598 -2.5626 -2.5635 -2.5644 -2.5619 -2.5566 -2.5785 -2.6411 -2.7037 -2.7662 -2.8288 -2.9539 -2.9539 -3.0165 -3.0791 -3.1417 -3.2042 -3.2469 -3.2858 -3.3247 -3.3637 -3.4026 -3.4415 -3.4804 -3.5193 -3.5582 -3.5971 -3.688 -3.688 -3.7445 -3.8142 -3.8839 -3.9493 -4.0108 -4.0723 -4.1339 -4.1954 -4.2569 -4.3184 -4.3799 -4.4415 -4.5025 -4.5587 -4.671 -4.671 -4.7272 -4.7834 -4.8395 -4.9021 -4.9697 -5.0372 -5.1048 -5.1723 -5.2399 -5.2587 -5.2681 -5.2774 -5.2868 -5.2961 -5.3148 -5.3148 -5.3242 -5.3335 -5.3414 -5.3275 -5.3137 -5.2999 -5.2861 -5.379 -5.4956 -5.6719 -5.8482 -6.0245 -6.2008 -6.377 -6.5533 -6.5533 -6.9059 -7.0822 -7.2585 -7.4348 -7.611 -7.7873 -7.9636 -8.1564 -8.3212 -8.486 -8.6508 -8.8157 -8.9739 -9.1292 -9.2844 -9.2844 -9.5948 -9.75 -9.9052 -10.06 -10.146 -10.061 -9.9963 -9.9315 -9.8666 -9.8017 -9.7369 -9.672 -9.6071 -9.5423 -9.4774 -9.4774 -9.3477 -9.275 -9.1852 -9.0517 -8.9182 -8.7847 -8.6513 -8.5178 -8.3843 -8.2508 -8.1173 -7.9838 -7.8503 -7.7168 -7.6333 -7.6333 -7.609 -7.5895 -7.57 -7.5505 -7.531 -7.5115 -7.492 -7.4725 -7.453 -7.4335 -7.4139 -7.4053 -7.4491 -7.5334 -7.6177 -7.7863 -7.7863 -7.8706 -7.9549 -8.0391 -8.1234 -8.2077 -8.292 -8.3763 -8.449 -8.4751 -8.5011 -8.5272 -8.5532 -8.5793 -8.6053 -8.6574 -8.6574 -8.6835 -8.7348 -8.8112 -8.8877 -8.9641 -9.04 -9.1159 -9.1917 -9.2676 -9.3435 -9.4182 -9.4922 -9.5662 -9.6402 -9.7146 -9.7146 -9.7481 -9.7815 -9.815 -9.8485 -9.8819 -9.9288 -9.9925 -10.056 -10.12 -10.184 -10.247 -10.311 -10.375 -10.438 -10.534 -10.534 -10.537 -10.546 -10.58 -10.613 -10.647 -10.68 -10.714 -10.745 -10.76 -10.776 -10.791 -10.807 -10.822 -10.838 -10.863 -10.863 -10.97 -10.977 -10.971 -10.966 -10.961 -10.955 -10.95 -10.945 -10.939 -10.934 -10.929 -10.923 -10.968 -11.033 -11.099 -11.099 -11.23 -11.296 -11.336 -11.351 -11.366 -11.38 -11.395 -11.409 -11.424 -11.438 -11.485 -11.549 -11.612 -11.675 -11.739 -11.739 -11.865 -11.929 -11.995 -12.06 -12.126 -12.191 -12.257 -12.322 -12.385 -12.42 -12.455 -12.49 -12.524 -12.559 -12.594 -12.594 -12.671 -12.72 -12.768 -12.817 -12.866 -12.914 -12.963 -13.012 -13.015 -12.977 -12.939 -12.902 -12.864 -12.827 -12.789 -12.789 -12.857 -12.893 -12.929 -12.965 -13.001 -13.037 -13.073 -13.109 -13.099 -13.047 -12.995 -12.943 -12.891
-1.0419 -1.0341 -1.0244 -1.0146 -1.0069 -0.98995 -0.97298 -0.956 -0.93902 -0.92205 -0.90507 -0.90507 -0.87112 -0.85414 -0.83717 -0.82019 -0.80322 -0.78624 -0.76926 -0.76085 -0.76745 -0.80795 -0.84845 -0.88896 -0.92946 -0.96996 -1.0105 -1.0105 -1.0909 -1.1283 -1.1658 -1.2032 -1.2406 -1.278 -1.2828 -1.291 -1.3018 -1.3126 -1.3233 -1.3341 -1.3449 -1.3557 -1.3665 -1.388 -1.388 -1.3988 -1.4096 -1.3984 -1.3865 -1.3747 -1.3628 -1.351 -1.3391 -1.3272 -1.3154 -1.3025 -1.2643 -1.226 -1.1877 -1.1202 -1.1202 -1.1555 -1.1908 -1.226 -1.2613 -1.2965 -1.3318 -1.3562 -1.3798 -1.4034 -1.4269 -1.4505 -1.4741 -1.4977 -1.5174 -1.5019 -1.5019 -1.4941 -1.4864 -1.4786 -1.4709 -1.4631 -1.4524 -1.4412 -1.43 -1.4188 -1.4076 -1.3964 -1.3997 -1.4234 -1.447 -1.4943 -1.4943 -1.518 -1.5418 -1.5738 -1.6059 -1.6379 -1.67 -1.7021 -1.7341 -1.7662 -1.7854 -1.8021 -1.8188 -1.8355 -1.8522 -1.8856 -1.8856 -1.9061 -1.928 -1.95 -1.9719 -1.9938 -2.0158 -2.0298 -2.0158 -2.0019 -1.988 -1.974 -1.9601 -1.9462 -1.9257 -1.9007 -1.9007 -1.8507 -1.8258 -1.8008 -1.7758 -1.7727 -1.7869 -1.8011 -1.8152 -1.8294 -1.8435 -1.8577 -1.8692 -1.8805 -1.8917 -1.903 -1.903 -1.9256 -1.9391 -1.9724 -2.0057 -2.039 -2.0724 -2.1057 -2.139 -2.1723 -2.2002 -2.2243 -2.2483 -2.2724 -2.2965 -2.3211 -2.3211 -2.392 -2.4274 -2.4628 -2.4796 -2.4817 -2.4837 -2.4857 -2.4877 -2.4898 -2.4918 -2.4938 -2.497 -2.5044 -2.5117 -2.5191 -2.5191 -2.5338 -2.5411 -2.5484 -2.5558 -2.5631 -2.5705 -2.5778 -2.5818 -2.5798 -2.6259 -2.6885 -2.7511 -2.8137 -2.8762 -2.9388 -3.0639 -3.0639 -3.1265 -3.1891 -3.2517 -3.3142 -3.3589 -3.3979 -3.4368 -3.4757 -3.5146 -3.5535 -3.5924 -3.6314 -3.6703 -3.7159 -3.8133 -3.8133 -3.868 -3.9377 -4.0074 -4.077 -4.1467 -4.2139 -4.2754 -4.3369 -4.3984 -4.46 -4.5215 -4.583 -4.6445 -4.7007 -4.813 -4.813 -4.8691 -4.9253 -4.9924 -5.06 -5.1275 -5.1951 -5.2627 -5.3302 -5.3978 -5.421 -5.4303 -5.4397 -5.449 -5.4584 -5.4771 -5.4771 -5.4864 -5.4958 -5.5051 -5.5145 -5.5238 -5.5221 -5.5083 -5.5686 -5.7392 -5.9155 -6.0918 -6.2681 -6.4444 -6.6206 -6.7969 -6.7969 -7.1354 -7.2949 -7.4544 -7.6139 -7.7734 -7.9329 -8.0924 -8.2337 -8.3889 -8.5441 -8.6993 -8.8545 -9.0097 -9.1649 -9.3202 -9.3202 -9.6306 -9.7858 -9.941 -10.096 -10.045 -9.9326 -9.8653 -9.8005 -9.7356 -9.6707 -9.6059 -9.541 -9.4761 -9.4113 -9.3464 -9.3464 -9.2167 -9.1327 -9.0481 -8.9371 -8.8036 -8.6701 -8.5366 -8.4032 -8.2697 -8.1362 -8.0027 -7.8692 -7.7357 -7.6033 -7.5981 -7.5981 -7.5813 -7.5618 -7.5423 -7.5228 -7.5033 -7.4838 -7.4643 -7.4448 -7.4252 -7.4057 -7.3862 -7.4156 -7.4538 -7.5216 -7.6059 -7.7744 -7.7744 -7.8587 -7.943 -8.0273 -8.1116 -8.1959 -8.2802 -8.3644 -8.4245 -8.4526 -8.4701 -8.4876 -8.5051 -8.5226 -8.5401 -8.587 -8.587 -8.613 -8.6586 -8.7348 -8.8107 -8.8866 -8.9625 -9.0384 -9.1143 -9.1902 -9.2661 -9.3403 -9.4143 -9.4883 -9.5623 -9.6811 -9.6811 -9.7146 -9.748 -9.7815 -9.815 -9.8484 -9.9026 -9.9663 -10.03 -10.094 -10.157 -10.221 -10.285 -10.348 -10.412 -10.539 -10.539 -10.575 -10.592 -10.626 -10.659 -10.677 -10.693 -10.708 -10.724 -10.74 -10.755 -10.771 -10.786 -10.802 -10.817 -10.855 -10.855 -10.962 -11.015 -11.015 -11.009 -11.004 -10.999 -10.993 -10.988 -10.983 -10.977 -10.972 -10.972 -11.038 -11.103 -11.169 -11.169 -11.3 -11.365 -11.431 -11.458 -11.473 -11.487 -11.502 -11.517 -11.531 -11.553 -11.617 -11.68 -11.744 -11.807 -11.87 -11.87 -11.997 -12.06 -12.125 -12.19 -12.256 -12.321 -12.387 -12.453 -12.496 -12.53 -12.565 -12.6 -12.635 -12.669 -12.704 -12.704 -12.775 -12.824 -12.872 -12.921 -12.969 -13.018 -13.067 -13.095 -13.058 -13.02 -12.983 -12.945 -12.908 -12.87 -12.833 -12.833 -12.867 -12.903 -12.939 -12.975 -13.011 -13.047 -13.083 -13.1 -13.048 -12.996 -12.944 -12.892 -12.84
-1.041 -1.0312 -1.0215 -1.0117 -1.0083 -1.0041 -0.98717 -0.9702 -0.95322 -0.93624 -0.91927 -0.91927 -0.88532 -0.86834 -0.85136 -0.83439 -0.81741 -0.80044 -0.78346 -0.78636 -0.79216 -0.81489 -0.85539 -0.89589 -0.93639 -0.9769 -1.0174 -1.0174 -1.0984 -1.1389 -1.1794 -1.2199 -1.2604 -1.3009 -1.3275 -1.3383 -1.3491 -1.3599 -1.3707 -1.3814 -1.3922 -1.403 -1.4138 -1.4353 -1.4353 -1.4461 -1.4569 -1.4486 -1.4367 -1.4248 -1.413 -1.4011 -1.3893 -1.3774 -1.3536 -1.3153 -1.277 -1.2387 -1.2004 -1.131 -1.131 -1.1662 -1.2015 -1.2367 -1.272 -1.3072 -1.3425 -1.3777 -1.4121 -1.4357 -1.4593 -1.4828 -1.5064 -1.53 -1.5488 -1.5333 -1.5333 -1.5256 -1.5178 -1.5101 -1.5001 -1.4889 -1.4777 -1.4665 -1.4553 -1.4441 -1.4329 -1.4217 -1.4263 -1.45 -1.4736 -1.5209 -1.5209 -1.5446 -1.5682 -1.5919 -1.6184 -1.6504 -1.6825 -1.7145 -1.7466 -1.7787 -1.7973 -1.814 -1.8307 -1.8474 -1.8641 -1.9052 -1.9052 -1.9271 -1.9491 -1.971 -1.9929 -2.0149 -2.0368 -2.0497 -2.0358 -2.0219 -2.0079 -1.994 -1.9801 -1.9661 -1.9522 -1.9383 -1.9383 -1.8896 -1.8646 -1.8396 -1.8146 -1.8126 -1.8268 -1.841 -1.8551 -1.8693 -1.8817 -1.893 -1.9043 -1.9156 -1.9269 -1.9382 -1.9382 -1.9607 -1.9742 -2.0075 -2.0408 -2.0741 -2.1074 -2.1407 -2.1741 -2.2074 -2.2407 -2.274 -2.3003 -2.3244 -2.3484 -2.3728 -2.3728 -2.4436 -2.479 -2.4813 -2.4834 -2.4854 -2.4874 -2.4894 -2.4915 -2.4935 -2.4955 -2.4975 -2.5004 -2.5077 -2.5151 -2.5224 -2.5224 -2.5371 -2.5444 -2.5518 -2.5591 -2.5665 -2.5738 -2.5812 -2.5965 -2.6707 -2.7359 -2.7985 -2.8611 -2.9237 -2.9862 -3.0488 -3.1739 -3.1739 -3.2365 -3.2991 -3.3616 -3.4242 -3.471 -3.5099 -3.5488 -3.5877 -3.6266 -3.6656 -3.7045 -3.7439 -3.7926 -3.8413 -3.9387 -3.9387 -3.9915 -4.0612 -4.1309 -4.2005 -4.2702 -4.3399 -4.4096 -4.4785 -4.54 -4.6015 -4.663 -4.7245 -4.7861 -4.8426 -4.9549 -4.9549 -5.0152 -5.0827 -5.1503 -5.2178 -5.2854 -5.353 -5.4205 -5.4881 -5.5557 -5.5832 -5.5926 -5.6019 -5.6113 -5.6206 -5.6393 -5.6393 -5.6487 -5.658 -5.6674 -5.6767 -5.6861 -5.6954 -5.7048 -5.7593 -5.9188 -6.0783 -6.2378 -6.3973 -6.5568 -6.7163 -6.8758 -6.8758 -7.1948 -7.3543 -7.5138 -7.6733 -7.8327 -7.9922 -8.1438 -8.2798 -8.4247 -8.5799 -8.7351 -8.8903 -9.0455 -9.2007 -9.356 -9.356 -9.6664 -9.8216 -9.9768 -10.057 -9.944 -9.8313 -9.7343 -9.6695 -9.6046 -9.5398 -9.4749 -9.41 -9.3452 -9.2803 -9.2154 -9.2154 -9.075 -8.9904 -8.9059 -8.8213 -8.689 -8.5555 -8.422 -8.2885 -8.1551 -8.0216 -7.8881 -7.7546 -7.6211 -7.5681 -7.5629 -7.5629 -7.5525 -7.5341 -7.5146 -7.4951 -7.4756 -7.456 -7.4365 -7.417 -7.3975 -7.378 -7.3877 -7.4259 -7.4641 -7.5097 -7.594 -7.7626 -7.7626 -7.8469 -7.9312 -8.0155 -8.0997 -8.184 -8.2683 -8.3371 -8.3939 -8.441 -8.4585 -8.476 -8.4935 -8.511 -8.5285 -8.5634 -8.5634 -8.5809 -8.5923 -8.6574 -8.7333 -8.8092 -8.8851 -8.961 -9.0369 -9.1128 -9.1885 -9.2624 -9.3364 -9.4104 -9.4844 -9.6324 -9.6324 -9.681 -9.7145 -9.748 -9.7814 -9.8149 -9.8764 -9.9401 -10.004 -10.067 -10.131 -10.195 -10.259 -10.322 -10.386 -10.513 -10.513 -10.573 -10.61 -10.626 -10.641 -10.657 -10.672 -10.688 -10.703 -10.719 -10.734 -10.75 -10.765 -10.781 -10.796 -10.847 -10.847 -10.954 -11.007 -11.058 -11.053 -11.047 -11.042 -11.037 -11.031 -11.026 -11.021 -11.015 -11.042 -11.107 -11.173 -11.239 -11.239 -11.37 -11.435 -11.501 -11.566 -11.58 -11.595 -11.609 -11.624 -11.638 -11.685 -11.748 -11.812 -11.875 -11.938 -12.002 -12.002 -12.129 -12.192 -12.255 -12.321 -12.386 -12.452 -12.517 -12.571 -12.606 -12.641 -12.675 -12.71 -12.745 -12.78 -12.814 -12.814 -12.884 -12.927 -12.976 -13.025 -13.073 -13.122 -13.171 -13.139 -13.101 -13.064 -13.026 -12.988 -12.951 -12.913 -12.876 -12.876 -12.878 -12.914 -12.95 -12.986 -13.022 -13.058 -13.094 -13.049 -12.997 -12.945 -12.893 -12.84 -12.788
-1.041 -1.0312 -1.0215 -1.0117 -1.0083 -1.0041 -0.98717 -0.9702 -0.95322 -0.93624 -0.91927 -0.91927 -0.88532 -0.86834 -0.85136 -0.83439 -0.81741 -0.80044 -0.78346 -0.78636 -0.79216 -0.81489 -0.85539 -0.89589 -0.93639 -0.9769 -1.0174 -1.0174 -1.0984 -1.1389 -1.1794 -1.2199 -1.2604 -1.3009 -1.3275 -1.3383 -1.3491 -1.3599 -1.3707 -1.3814 -1.3922 -1.403 -1.4138 -1.4353 -1.4353 -1.4461 -1.4569 -1.4486 -1.4367 -1.4248 -1.413 -1.4011 -1.3893 -1.3774 -1.3536 -1.3153 -1.277 -1.2387 -1.2004 -1.131 -1.131 -1.1662 -1.2015 -1.2367 -1.272 -1.3072 -1.3425 -1.3777 -1.4121 -1.4357 -1.4593 -1.4828 -1.5064 -1.53 -1.5488 -1.5333 -1.5333 -1.5256 -1.5178 -1.5101 -1.5001 -1.4889 -1.4777 -1.4665 -1.4553 -1.4441 -1.4329 -1.4217 -1.4263 -1.45 -1.4736 -1.5209 -1.5209 -1.5446 -1.5682 -1.5919 -1.6184 -1.6504 -1.6825 -1.7145 -1.7466 -1.7787 -1.7973 -1.814 -1.8307 -1.8474 -1.8641 -1.9052 -1.9052 -1.9271 -1.9491 -1.971 -1.9929 -2.0149 -2.0368 -2.0497 -2.0358 -2.0219 -2.0079 -1.994 -1.9801 -1.9661 -1.9522 -1.9383 -1.9383 -1.8896 -1.8646 -1.8396 -1.8146 -1.8126 -1.8268 -1.841 -1.8551 -1.8693 -1.8817 -1.893 -1.9043 -1.9156 -1.9269 -1.9382 -1.9382 -1.9607 -1.9742 -2.0075 -2.0408 -2.0741 -2.1074 -2.1407 -2.1741 -2.2074 -2.2407 -2.274 -2.3003 -2.3244 -2.3484 -2.3728 -2.3728 -2.4436 -2.479 -2.4813 -2.4834 -2.4854 -2.4874 -2.4894 -2.4915 -2.4935 -2.4955 -2.4975 -2.5004 -2.5077 -2.5151 -2.5224 -2.5224 -2.5371 -2.5444 -2.5518 -2.5591 -2.5665 -2.5738 -2.5812 -2.5965 -2.6707 -2.7359 -2.7985 -2.8611 -2.9237 -2.9862 -3.0488 -3.1739 -3.1739 -3.2365 -3.2991 -3.3616 -3.4242 -3.471 -3.5099 -3.5488 -3.5877 -3.6266 -3.6656 -3.7045 -3.7439 -3.7926 -3.8413 -3.9387 -3.9387 -3.9915 -4.0612 -4.1309 -4.2005 -4.2702 -4.3399 -4.4096 -4.4785 -4.54 -4.6015 -4.663 -4.7245 -4.7861 -4.8426 -4.9549 -4.9549 -5.0152 -5.0827 -5.1503 -5.2178 -5.2854 -5.353 -5.4205 -5.4881 -5.5557 -5.5832 -5.5926 -5.6019 -5.6113 -5.6206 -5.6393 -5.6393 -5.6487 -5.658 -5.6674 -5.6767 -5.6861 -5.6954 -5.7048 -5.7593 -5.9188 -6.0783 -6.2378 -6.3973 -6.5568 -6.7163 -6.8758 -6.8758 -7.1948 -7.3543 -7.5138 -7.6733 -7.8327 -7.9922 -8.1438 -8.2798 -8.4247 -8.5799 -8.7351 -8.8903 -9.0455 -9.2007 -9.356 -9.356 -9.6664 -9.8216 -9.9768 -10.057 -9.944 -9.8313 -9.7343 -9.6695 -9.6046 -9.5398 -9.4749 -9.41 -9.3452 -9.2803 -9.2154 -9.2154 -9.075 -8.9904 -8.9059 -8.8213 -8.689 -8.5555 -8.422 -8.2885 -8.1551 -8.0216 -7.8881 -7.7546 -7.6211 -7.5681 -7.5629 -7.5629 -7.5525 -7.5341 -7.5146 -7.4951 -7.4756 -7.456 -7.4365 -7.417 -7.3975 -7.378 -7.3877 -7.4259 -7.4641 -7.5097 -7.594 -7.7626 -7.7626 -7.8469 -7.9312 -8.0155 -8.0997 -8.184 -8.2683 -8.3371 -8.3939 -8.441 -8.4585 -8.476 -8.4935 -8.511 -8.5285 -8.5634 -8.5634 -8.5809 -8.5923 -8.6574 -8.7333 -8.8092 -8.8851 -8.961 -9.0369 -9.1128 -9.1885 -9.2624 -9.3364 -9.4104 -9.4844 -9.6324 -9.6324 -9.681 -9.7145 -9.748 -9.7814 -9.8149 -9.8764 -9.9401 -10.004 -10.067 -10.131 -10.195 -10.259 -10.322 -10.386 -10.513 -10.513 -10.573 -10.61 -10.626 -10.641 -10.657 -10.672 -10.688 -10.703 -10.719 -10.734 -10.75 -10.765 -10.781 -10.796 -10.847 -10.847 -10.954 -11.007 -11.058 -11.053 -11.047 -11.042 -11.037 -11.031 -11.026 -11.021 -11.015 -11.042 -11.107 -11.173 -11.239 -11.239 -11.37 -11.435 -11.501 -11.566 -11.58 -11.595 -11.609 -11.624 -11.638 -11.685 -11.748 -11.812 -11.875 -11.938 -12.002 -12.002 -12.129 -12.192 -12.255 -12.321 -12.386 -12.452 -12.517 -12.571 -12.606 -12.641 -12.675 -12.71 -12.745 -12.78 -12.814 -12.814 -12.884 -12.927 -12.976 -13.025 -13.073 -13.122 -13.171 -13.139 -13.101 -13.064 -13.026 -12.988 -12.951 -12.913 -12.876 -12.876 -12.878 -12.914 -12.95 -12.986 -13.022 -13.058 -13.094 -13.049 -12.997 -12.945 -12.893 -12.84 -12.788
-1.0381 -1.0283 -1.0186 -1.0103 -1.0095 -1.0088 -1.0014 -0.98439 -0.96742 -0.95044 -0.93347 -0.93347 -0.89951 -0.88254 -0.86556 -0.84859 -0.83161 -0.81463 -0.80607 -0.81187 -0.81766 -0.82346 -0.86233 -0.90283 -0.94333 -0.98383 -1.0243 -1.0243 -1.1053 -1.1458 -1.1863 -1.2268 -1.2673 -1.2973 -1.3268 -1.3572 -1.3875 -1.4072 -1.418 -1.4288 -1.4395 -1.4503 -1.4611 -1.4827 -1.4827 -1.4934 -1.5042 -1.4987 -1.4869 -1.475 -1.4632 -1.4513 -1.4395 -1.4046 -1.3664 -1.3281 -1.2898 -1.2515 -1.2132 -1.1417 -1.1417 -1.177 -1.2122 -1.2475 -1.2827 -1.318 -1.3532 -1.3885 -1.4237 -1.459 -1.4916 -1.5151 -1.5387 -1.5623 -1.5803 -1.5648 -1.5648 -1.557 -1.5478 -1.5366 -1.5255 -1.5143 -1.5031 -1.4919 -1.4807 -1.4695 -1.4583 -1.4471 -1.453 -1.4766 -1.5003 -1.5476 -1.5476 -1.5712 -1.5949 -1.6185 -1.6422 -1.6658 -1.695 -1.727 -1.7591 -1.7911 -1.8093 -1.826 -1.8427 -1.8604 -1.8823 -1.9262 -1.9262 -1.9482 -1.9701 -1.9921 -2.014 -2.0359 -2.0579 -2.0697 -2.0558 -2.0418 -2.0279 -2.014 -2.0 -1.9861 -1.9722 -1.9582 -1.9582 -1.9284 -1.9034 -1.8784 -1.8534 -1.8525 -1.8667 -1.8808 -1.8943 -1.9056 -1.9168 -1.9281 -1.9394 -1.9507 -1.962 -1.9733 -1.9733 -1.9959 -2.0092 -2.0425 -2.0759 -2.1092 -2.1425 -2.1758 -2.2091 -2.2425 -2.2758 -2.3091 -2.3424 -2.3757 -2.4004 -2.4245 -2.4245 -2.481 -2.483 -2.485 -2.4871 -2.4891 -2.4911 -2.4932 -2.4952 -2.4972 -2.4992 -2.5013 -2.5037 -2.511 -2.5184 -2.5257 -2.5257 -2.5404 -2.5478 -2.5551 -2.5625 -2.5698 -2.5771 -2.6177 -2.6967 -2.7722 -2.8384 -2.9047 -2.971 -3.0336 -3.0962 -3.1588 -3.2839 -3.2839 -3.3465 -3.4091 -3.4716 -3.5342 -3.583 -3.6219 -3.6608 -3.6998 -3.7387 -3.7776 -3.8206 -3.8693 -3.918 -3.9667 -4.064 -4.064 -4.115 -4.1847 -4.2543 -4.324 -4.3937 -4.4634 -4.533 -4.6027 -4.6724 -4.7421 -4.8046 -4.8661 -4.9276 -4.9846 -5.1055 -5.1055 -5.173 -5.2406 -5.3082 -5.3757 -5.4433 -5.5109 -5.5784 -5.646 -5.7135 -5.7455 -5.7548 -5.7642 -5.7735 -5.7829 -5.8016 -5.8016 -5.8109 -5.8203 -5.8296 -5.839 -5.8483 -5.8613 -5.8793 -5.9048 -5.9782 -6.1377 -6.2972 -6.4567 -6.6162 -6.7756 -6.9351 -6.9351 -7.2541 -7.4136 -7.5731 -7.7326 -7.8921 -8.0516 -8.1932 -8.3292 -8.4652 -8.6157 -8.7709 -8.9261 -9.0813 -9.2365 -9.3917 -9.3917 -9.7022 -9.8574 -10.013 -9.9553 -9.8427 -9.7301 -9.6174 -9.5385 -9.4736 -9.4088 -9.3439 -9.279 -9.2142 -9.1493 -9.0844 -9.0844 -8.9327 -8.8482 -8.7636 -8.679 -8.5744 -8.4409 -8.3074 -8.1739 -8.0404 -7.907 -7.7735 -7.64 -7.5381 -7.5329 -7.5277 -7.5277 -7.5173 -7.5064 -7.4869 -7.4673 -7.4478 -7.4283 -7.4088 -7.3893 -7.3698 -7.3598 -7.398 -7.4362 -7.4745 -7.5127 -7.5822 -7.7508 -7.7508 -7.835 -7.9193 -8.0036 -8.0879 -8.1722 -8.2497 -8.3065 -8.3634 -8.4202 -8.4469 -8.4644 -8.4818 -8.4993 -8.5168 -8.5518 -8.5518 -8.5675 -8.5755 -8.5835 -8.6559 -8.7318 -8.8077 -8.8836 -8.9595 -9.0354 -9.1106 -9.1846 -9.2586 -9.3326 -9.4066 -9.5546 -9.5546 -9.6286 -9.681 -9.7144 -9.7479 -9.7865 -9.8502 -9.9139 -9.9776 -10.041 -10.105 -10.169 -10.232 -10.296 -10.351 -10.462 -10.462 -10.517 -10.571 -10.605 -10.621 -10.636 -10.652 -10.667 -10.683 -10.698 -10.714 -10.729 -10.745 -10.76 -10.786 -10.839 -10.839 -10.946 -10.999 -11.052 -11.096 -11.091 -11.085 -11.08 -11.075 -11.069 -11.064 -11.059 -11.112 -11.177 -11.243 -11.308 -11.308 -11.44 -11.505 -11.571 -11.636 -11.687 -11.702 -11.717 -11.731 -11.753 -11.816 -11.88 -11.943 -12.007 -12.07 -12.133 -12.133 -12.26 -12.323 -12.387 -12.451 -12.517 -12.582 -12.646 -12.681 -12.716 -12.751 -12.786 -12.82 -12.855 -12.89 -12.925 -12.925 -12.994 -13.031 -13.08 -13.129 -13.177 -13.226 -13.219 -13.182 -13.144 -13.107 -13.069 -13.032 -12.994 -12.957 -12.919 -12.919 -12.888 -12.924 -12.96 -12.996 -13.032 -13.068 -13.05 -12.998 -12.946 -12.893 -12.841 -12.789 -12.737
-1.0351 -1.0254 -1.0156 -1.0115 -1.0107 -1.01 -1.0092 -0.99859 -0.98161 -0.96464 -0.94766 -0.94766 -0.91371 -0.89673 -0.87976 -0.86278 -0.84581 -0.82883 -0.83158 -0.83738 -0.84317 -0.84897 -0.86926 -0.90977 -0.95027 -0.99077 -1.0313 -1.0313 -1.1123 -1.1528 -1.1933 -1.2338 -1.2631 -1.2918 -1.3211 -1.3514 -1.3818 -1.4121 -1.4424 -1.4727 -1.4869 -1.4977 -1.5084 -1.53 -1.53 -1.5408 -1.5515 -1.5489 -1.5371 -1.5252 -1.5133 -1.494 -1.4557 -1.4174 -1.3791 -1.3408 -1.3026 -1.2643 -1.226 -1.1525 -1.1525 -1.1877 -1.223 -1.2582 -1.2935 -1.3287 -1.364 -1.3992 -1.4345 -1.4697 -1.505 -1.5402 -1.571 -1.5946 -1.6117 -1.5956 -1.5956 -1.5844 -1.5732 -1.562 -1.5508 -1.5396 -1.5284 -1.5172 -1.506 -1.4948 -1.4836 -1.4724 -1.4796 -1.5033 -1.5269 -1.5742 -1.5742 -1.5979 -1.6215 -1.6452 -1.6688 -1.6925 -1.7161 -1.7398 -1.7716 -1.8036 -1.8212 -1.8379 -1.8595 -1.8815 -1.9034 -1.9473 -1.9473 -1.9692 -1.9912 -2.0131 -2.035 -2.057 -2.0789 -2.0897 -2.0757 -2.0618 -2.0479 -2.0339 -2.02 -2.0061 -1.9921 -1.9782 -1.9782 -1.9503 -1.9364 -1.9172 -1.8923 -1.8924 -1.9066 -1.9181 -1.9294 -1.9407 -1.952 -1.9633 -1.9746 -1.9858 -1.9971 -2.0084 -2.0084 -2.031 -2.0443 -2.0776 -2.1109 -2.1442 -2.1776 -2.2109 -2.2442 -2.2775 -2.3108 -2.3442 -2.3775 -2.4108 -2.4441 -2.4764 -2.4764 -2.4847 -2.4867 -2.4888 -2.4908 -2.4928 -2.4949 -2.4969 -2.4989 -2.5009 -2.503 -2.505 -2.507 -2.5144 -2.5217 -2.5291 -2.5291 -2.5438 -2.5511 -2.5584 -2.5658 -2.5731 -2.6389 -2.7179 -2.797 -2.8736 -2.9399 -3.0062 -3.0725 -3.1388 -3.205 -3.2688 -3.3939 -3.3939 -3.4565 -3.5191 -3.5816 -3.6442 -3.695 -3.734 -3.7729 -3.8118 -3.8507 -3.8973 -3.946 -3.9946 -4.0433 -4.092 -4.1894 -4.1894 -4.2385 -4.3081 -4.3778 -4.4475 -4.5172 -4.5869 -4.6565 -4.7262 -4.7959 -4.8656 -4.9352 -5.0049 -5.0691 -5.1282 -5.2633 -5.2633 -5.3309 -5.3985 -5.466 -5.5336 -5.6012 -5.6687 -5.7363 -5.8039 -5.8714 -5.9077 -5.9171 -5.9264 -5.9358 -5.9451 -5.9638 -5.9638 -5.9732 -5.9825 -5.9919 -6.0016 -6.0196 -6.0376 -6.0556 -6.0829 -6.1129 -6.197 -6.3565 -6.516 -6.6755 -6.835 -6.9945 -6.9945 -7.3135 -7.473 -7.6325 -7.792 -7.9515 -8.1066 -8.2426 -8.3786 -8.5146 -8.6515 -8.8067 -8.9619 -9.1171 -9.2723 -9.4275 -9.4275 -9.738 -9.8932 -9.9667 -9.854 -9.7414 -9.6288 -9.5162 -9.4075 -9.3426 -9.2778 -9.2129 -9.1481 -9.0832 -9.0183 -8.9535 -8.9535 -8.7905 -8.7059 -8.6213 -8.5367 -8.4521 -8.3263 -8.1928 -8.0593 -7.9258 -7.7923 -7.6589 -7.5254 -7.5029 -7.4977 -7.4925 -7.4925 -7.4821 -7.4769 -7.4591 -7.4396 -7.4201 -7.4006 -7.3811 -7.3616 -7.3421 -7.3701 -7.4083 -7.4466 -7.4848 -7.523 -7.5703 -7.7389 -7.7389 -7.8232 -7.9075 -7.9918 -8.0761 -8.1604 -8.2191 -8.2759 -8.3328 -8.3896 -8.4352 -8.4527 -8.4702 -8.4877 -8.5052 -8.5402 -8.5402 -8.5506 -8.5586 -8.5667 -8.5785 -8.6544 -8.7303 -8.8062 -8.8821 -8.958 -9.0327 -9.1067 -9.1807 -9.2547 -9.3287 -9.4767 -9.4767 -9.5507 -9.6247 -9.6809 -9.7144 -9.7603 -9.824 -9.8877 -9.9514 -10.015 -10.075 -10.13 -10.185 -10.24 -10.296 -10.406 -10.406 -10.461 -10.515 -10.569 -10.6 -10.615 -10.631 -10.647 -10.662 -10.678 -10.693 -10.709 -10.724 -10.74 -10.778 -10.831 -10.831 -10.938 -10.991 -11.044 -11.098 -11.134 -11.129 -11.123 -11.118 -11.113 -11.107 -11.116 -11.181 -11.247 -11.313 -11.378 -11.378 -11.509 -11.575 -11.64 -11.706 -11.772 -11.809 -11.824 -11.838 -11.885 -11.948 -12.011 -12.075 -12.138 -12.201 -12.265 -12.265 -12.392 -12.455 -12.518 -12.582 -12.647 -12.712 -12.757 -12.791 -12.826 -12.861 -12.896 -12.93 -12.965 -13.0 -13.035 -13.035 -13.104 -13.139 -13.184 -13.232 -13.281 -13.3 -13.263 -13.225 -13.188 -13.15 -13.113 -13.075 -13.038 -13.0 -12.962 -12.962 -12.899 -12.935 -12.971 -13.007 -13.043 -13.051 -12.999 -12.946 -12.894 -12.842 -12.79 -12.738 -12.686
-1.0293 -1.0196 -1.0146 -1.0139 -1.0131 -1.0124 -1.0116 -1.0109 -1.01 -0.99303 -0.97605 -0.97605 -0.9421 -0.92513 -0.90815 -0.89117 -0.8742 -0.8768 -0.8826 -0.88839 -0.89419 -0.89998 -0.90578 -0.92364 -0.96414 -1.0046 -1.0451 -1.0451 -1.1261 -1.1661 -1.1947 -1.2234 -1.252 -1.2807 -1.3096 -1.3399 -1.3702 -1.4006 -1.4309 -1.4612 -1.4916 -1.5219 -1.5522 -1.6129 -1.6129 -1.6354 -1.6462 -1.6493 -1.6344 -1.5961 -1.5578 -1.5195 -1.4812 -1.4429 -1.4047 -1.3664 -1.3281 -1.2898 -1.2515 -1.1749 -1.1749 -1.2092 -1.2444 -1.2797 -1.3149 -1.3502 -1.3854 -1.4207 -1.4559 -1.4912 -1.5264 -1.5617 -1.5969 -1.6274 -1.6493 -1.6463 -1.6463 -1.6351 -1.6239 -1.6127 -1.6015 -1.5903 -1.5791 -1.5679 -1.5567 -1.5455 -1.5343 -1.5231 -1.5329 -1.5565 -1.5802 -1.6275 -1.6275 -1.6511 -1.6748 -1.6984 -1.7221 -1.7457 -1.7694 -1.793 -1.8154 -1.8362 -1.8578 -1.8797 -1.9016 -1.9236 -1.9455 -1.9894 -1.9894 -2.0113 -2.0333 -2.0552 -2.0771 -2.0991 -2.121 -2.1296 -2.1157 -2.1017 -2.0878 -2.0739 -2.0599 -2.046 -2.0321 -2.0181 -2.0181 -1.9903 -1.9763 -1.9652 -1.9608 -1.9666 -1.9771 -1.9884 -1.9996 -2.0109 -2.0222 -2.0335 -2.0448 -2.0561 -2.0674 -2.0787 -2.0787 -2.1013 -2.1144 -2.1478 -2.1811 -2.2144 -2.2477 -2.281 -2.3143 -2.3477 -2.381 -2.4143 -2.4476 -2.4703 -2.4916 -2.513 -2.513 -2.5067 -2.5018 -2.4969 -2.4983 -2.5003 -2.5023 -2.5043 -2.5064 -2.5084 -2.5104 -2.5125 -2.5145 -2.521 -2.5284 -2.5357 -2.5357 -2.5504 -2.5578 -2.6023 -2.6813 -2.7604 -2.8394 -2.9184 -2.9974 -3.0764 -3.1429 -3.2092 -3.2754 -3.3417 -3.408 -3.4743 -3.6068 -3.6068 -3.6731 -3.7391 -3.8016 -3.8642 -3.9191 -3.958 -4.0019 -4.0506 -4.0993 -4.148 -4.1967 -4.2454 -4.294 -4.3427 -4.4401 -4.4401 -4.4888 -4.5551 -4.6248 -4.6945 -4.7642 -4.8338 -4.9035 -4.9732 -5.0429 -5.1125 -5.1822 -5.2586 -5.3356 -5.4137 -5.5709 -5.5709 -5.6467 -5.7142 -5.7818 -5.8494 -5.9169 -5.9845 -6.052 -6.1196 -6.1872 -6.2322 -6.2415 -6.2509 -6.2603 -6.2696 -6.2883 -6.2883 -6.3002 -6.3182 -6.3362 -6.3542 -6.3721 -6.3901 -6.409 -6.439 -6.469 -6.4989 -6.5289 -6.6347 -6.7942 -6.9537 -7.1132 -7.1132 -7.4322 -7.5917 -7.7512 -7.9107 -8.0695 -8.2055 -8.3415 -8.4775 -8.6135 -8.7495 -8.8855 -9.0335 -9.1887 -9.3439 -9.4991 -9.4991 -9.8095 -9.8767 -9.7641 -9.6515 -9.5389 -9.4262 -9.3136 -9.201 -9.0884 -9.0158 -8.951 -8.8861 -8.8212 -8.7564 -8.6751 -8.6751 -8.5059 -8.4213 -8.3368 -8.2522 -8.1676 -8.083 -7.9636 -7.8301 -7.6966 -7.5631 -7.4429 -7.4377 -7.4325 -7.4273 -7.4221 -7.4221 -7.4117 -7.4065 -7.4013 -7.3842 -7.3647 -7.3452 -7.3257 -7.3143 -7.3525 -7.3907 -7.429 -7.4672 -7.5054 -7.5437 -7.5819 -7.7152 -7.7152 -7.7995 -7.8838 -7.9681 -8.0443 -8.1011 -8.158 -8.2148 -8.2717 -8.3285 -8.3854 -8.4295 -8.447 -8.4645 -8.482 -8.5089 -8.5089 -8.517 -8.525 -8.533 -8.541 -8.549 -8.5754 -8.6513 -8.7272 -8.8029 -8.8769 -8.9509 -9.0249 -9.0989 -9.1729 -9.3209 -9.3209 -9.3949 -9.4689 -9.5426 -9.616 -9.6872 -9.7424 -9.7977 -9.853 -9.9083 -9.9636 -10.019 -10.074 -10.129 -10.185 -10.295 -10.295 -10.349 -10.403 -10.457 -10.51 -10.564 -10.59 -10.605 -10.621 -10.636 -10.652 -10.667 -10.683 -10.709 -10.762 -10.815 -10.815 -10.922 -10.975 -11.028 -11.082 -11.135 -11.188 -11.21 -11.205 -11.199 -11.194 -11.255 -11.321 -11.387 -11.452 -11.518 -11.518 -11.649 -11.715 -11.78 -11.846 -11.911 -11.977 -12.038 -12.084 -12.148 -12.211 -12.274 -12.338 -12.401 -12.464 -12.528 -12.528 -12.649 -12.708 -12.767 -12.825 -12.884 -12.924 -12.968 -13.012 -13.047 -13.081 -13.116 -13.151 -13.186 -13.22 -13.255 -13.255 -13.325 -13.359 -13.394 -13.44 -13.424 -13.387 -13.349 -13.312 -13.274 -13.237 -13.199 -13.162 -13.124 -13.087 -13.049 -13.049 -12.974 -12.956 -12.992 -13.028 -13.0 -12.948 -12.896 -12.844 -12.792 -12.74 -12.688 -12.635 -12.583
-1.0264 -1.0167 -1.0158 -1.0151 -1.0143 -1.0136 -1.0129 -1.0121 -1.0114 -1.0072 -0.99025 -0.99025 -0.9563 -0.93932 -0.92235 -0.90537 -0.89651 -0.90231 -0.9081 -0.9139 -0.91969 -0.92549 -0.93129 -0.93708 -0.97108 -1.0116 -1.0521 -1.0521 -1.1319 -1.1605 -1.1892 -1.2178 -1.2465 -1.2752 -1.3038 -1.3342 -1.3645 -1.3948 -1.4252 -1.4555 -1.4858 -1.5161 -1.5465 -1.6071 -1.6071 -1.6374 -1.6678 -1.6872 -1.6471 -1.6089 -1.5706 -1.5323 -1.494 -1.4557 -1.4174 -1.3791 -1.3409 -1.3026 -1.2643 -1.1877 -1.1877 -1.2199 -1.2552 -1.2904 -1.3257 -1.3609 -1.3962 -1.4314 -1.4667 -1.5019 -1.5372 -1.5702 -1.5979 -1.6256 -1.6471 -1.6568 -1.6568 -1.6604 -1.6492 -1.638 -1.6268 -1.6156 -1.6044 -1.5932 -1.582 -1.5709 -1.5597 -1.5485 -1.5595 -1.5831 -1.6068 -1.6541 -1.6541 -1.6777 -1.7014 -1.725 -1.7487 -1.7723 -1.7954 -1.8161 -1.8369 -1.8577 -1.8794 -1.901 -1.9227 -1.9446 -1.9665 -2.0104 -2.0104 -2.0324 -2.0543 -2.0763 -2.0982 -2.1201 -2.1421 -2.1496 -2.1356 -2.1217 -2.1078 -2.0938 -2.0799 -2.066 -2.052 -2.0381 -2.0381 -2.0103 -2.0059 -2.0016 -1.9972 -2.0032 -2.0137 -2.0241 -2.0348 -2.0461 -2.0574 -2.0686 -2.0799 -2.0912 -2.1025 -2.1138 -2.1138 -2.1364 -2.1495 -2.1828 -2.2161 -2.2495 -2.2828 -2.3161 -2.3494 -2.3827 -2.416 -2.4446 -2.4659 -2.4872 -2.5085 -2.5299 -2.5299 -2.525 -2.5201 -2.5152 -2.5103 -2.5054 -2.506 -2.5081 -2.5101 -2.5121 -2.5141 -2.5162 -2.5182 -2.5244 -2.5317 -2.5391 -2.5391 -2.5538 -2.6235 -2.7025 -2.7816 -2.8606 -2.9396 -3.0186 -3.0976 -3.1767 -3.2444 -3.3106 -3.3769 -3.4432 -3.5095 -3.5757 -3.7083 -3.7083 -3.7746 -3.8409 -3.9071 -3.9734 -4.0312 -4.0786 -4.1273 -4.176 -4.2247 -4.2733 -4.322 -4.3707 -4.4194 -4.4681 -4.5655 -4.5655 -4.6141 -4.6786 -4.7483 -4.818 -4.8876 -4.9573 -5.027 -5.0967 -5.1664 -5.238 -5.3151 -5.3922 -5.4693 -5.5472 -5.7045 -5.7045 -5.7831 -5.8617 -5.9397 -6.0072 -6.0748 -6.1424 -6.2099 -6.2775 -6.3451 -6.3944 -6.4038 -6.4131 -6.4225 -6.4318 -6.4585 -6.4585 -6.4765 -6.4944 -6.5124 -6.5304 -6.5484 -6.5664 -6.587 -6.617 -6.647 -6.677 -6.707 -6.737 -6.8536 -7.0131 -7.1726 -7.1726 -7.4916 -7.6511 -7.8106 -7.97 -8.1189 -8.2549 -8.3909 -8.5269 -8.6629 -8.7989 -8.935 -9.071 -9.2245 -9.3797 -9.5349 -9.5349 -9.8453 -9.7755 -9.6628 -9.5502 -9.4376 -9.325 -9.2123 -9.0997 -8.9871 -8.8848 -8.82 -8.7551 -8.6902 -8.6174 -8.5328 -8.5328 -8.3637 -8.2791 -8.1945 -8.1099 -8.0253 -7.9407 -7.849 -7.7155 -7.582 -7.4485 -7.4077 -7.4025 -7.3973 -7.3921 -7.3869 -7.3869 -7.3765 -7.3713 -7.3661 -7.3565 -7.337 -7.3175 -7.298 -7.3246 -7.3628 -7.4011 -7.4393 -7.4775 -7.5157 -7.554 -7.5922 -7.7034 -7.7034 -7.7877 -7.872 -7.9563 -8.0137 -8.0706 -8.1274 -8.1843 -8.2411 -8.2979 -8.3548 -8.4116 -8.4354 -8.4529 -8.4704 -8.4921 -8.4921 -8.5001 -8.5081 -8.5161 -8.5241 -8.5321 -8.5401 -8.5739 -8.6498 -8.725 -8.799 -8.873 -8.947 -9.021 -9.095 -9.2423 -9.2423 -9.3158 -9.3892 -9.4627 -9.5378 -9.6171 -9.6869 -9.7422 -9.7975 -9.8528 -9.9081 -9.9634 -10.019 -10.074 -10.129 -10.239 -10.239 -10.293 -10.347 -10.401 -10.454 -10.508 -10.562 -10.585 -10.6 -10.616 -10.631 -10.647 -10.662 -10.701 -10.754 -10.807 -10.807 -10.914 -10.967 -11.02 -11.074 -11.127 -11.18 -11.233 -11.248 -11.243 -11.26 -11.325 -11.391 -11.456 -11.522 -11.588 -11.588 -11.719 -11.784 -11.85 -11.921 -11.999 -12.077 -12.148 -12.136 -12.195 -12.254 -12.312 -12.371 -12.43 -12.488 -12.547 -12.547 -12.664 -12.723 -12.781 -12.84 -12.876 -12.907 -12.952 -12.997 -13.041 -13.086 -13.13 -13.175 -13.22 -13.264 -13.309 -13.309 -13.398 -13.443 -13.487 -13.499 -13.468 -13.43 -13.392 -13.355 -13.317 -13.28 -13.242 -13.205 -13.167 -13.13 -13.092 -13.092 -13.017 -12.98 -13.002 -13.001 -12.949 -12.897 -12.845 -12.793 -12.741 -12.688 -12.636 -12.584 -12.532
-1.0235 -1.0178 -1.017 -1.0163 -1.0156 -1.0148 -1.0141 -1.0133 -1.0126 -1.0118 -1.0044 -1.0044 -0.97049 -0.95352 -0.93654 -0.91957 -0.92202 -0.92782 -0.93361 -0.93941 -0.9452 -0.951 -0.95679 -0.96259 -0.97801 -1.0185 -1.059 -1.059 -1.1263 -1.155 -1.1837 -1.2123 -1.241 -1.2696 -1.2983 -1.3284 -1.3587 -1.3891 -1.4194 -1.4497 -1.4801 -1.5104 -1.5407 -1.6014 -1.6014 -1.6317 -1.6852 -1.7196 -1.6718 -1.624 -1.5833 -1.545 -1.5068 -1.4685 -1.4302 -1.3919 -1.3536 -1.3153 -1.277 -1.2005 -1.2005 -1.2307 -1.2659 -1.3012 -1.3364 -1.3717 -1.4069 -1.4422 -1.4774 -1.5127 -1.5407 -1.5684 -1.5961 -1.6238 -1.6448 -1.6546 -1.6546 -1.6595 -1.6644 -1.6634 -1.6522 -1.641 -1.6298 -1.6186 -1.6074 -1.5962 -1.585 -1.5738 -1.5861 -1.6098 -1.6334 -1.6807 -1.6807 -1.7044 -1.728 -1.7517 -1.7753 -1.7961 -1.8169 -1.8376 -1.8584 -1.8793 -1.9009 -1.9226 -1.9442 -1.9659 -1.9876 -2.0315 -2.0315 -2.0534 -2.0754 -2.0973 -2.1192 -2.1412 -2.1631 -2.1695 -2.1556 -2.1417 -2.1277 -2.1138 -2.0999 -2.0859 -2.072 -2.0581 -2.0581 -2.0467 -2.0423 -2.0379 -2.0336 -2.0398 -2.0503 -2.0607 -2.0712 -2.0817 -2.0925 -2.1038 -2.1151 -2.1264 -2.1376 -2.1489 -2.1489 -2.1715 -2.1846 -2.2179 -2.2512 -2.2845 -2.3178 -2.3512 -2.3845 -2.4178 -2.4401 -2.4615 -2.4828 -2.5041 -2.5255 -2.5468 -2.5468 -2.5434 -2.5385 -2.5336 -2.5287 -2.5238 -2.5189 -2.514 -2.5138 -2.5158 -2.5179 -2.5199 -2.5219 -2.5277 -2.5351 -2.5424 -2.5424 -2.6447 -2.7237 -2.8028 -2.8818 -2.9608 -3.0398 -3.1189 -3.1979 -3.2769 -3.3458 -3.4121 -3.4784 -3.5447 -3.6109 -3.6772 -3.8098 -3.8098 -3.8761 -3.9423 -4.0086 -4.0768 -4.1497 -4.202 -4.2526 -4.3013 -4.35 -4.3987 -4.4474 -4.4961 -4.5448 -4.5934 -4.6908 -4.6908 -4.7395 -4.8021 -4.8718 -4.9415 -5.0111 -5.0808 -5.1505 -5.2202 -5.2946 -5.3717 -5.4488 -5.5258 -5.6029 -5.6807 -5.838 -5.838 -5.9166 -5.9952 -6.0739 -6.1525 -6.2311 -6.3002 -6.3678 -6.4354 -6.5029 -6.5567 -6.566 -6.5754 -6.5847 -6.5988 -6.6347 -6.6347 -6.6527 -6.6707 -6.6887 -6.7067 -6.7247 -6.7427 -6.7651 -6.7951 -6.825 -6.855 -6.885 -6.915 -6.945 -7.0724 -7.2319 -7.2319 -7.5509 -7.7104 -7.8699 -8.0294 -8.1684 -8.3044 -8.4404 -8.5764 -8.7124 -8.8484 -8.9844 -9.1204 -9.2603 -9.4155 -9.5707 -9.5707 -9.7868 -9.6742 -9.5616 -9.4489 -9.3363 -9.2237 -9.1111 -8.9984 -8.8858 -8.7732 -8.689 -8.6241 -8.5593 -8.4751 -8.3905 -8.3905 -8.2214 -8.1368 -8.0522 -7.9676 -7.8831 -7.7985 -7.7139 -7.6009 -7.4674 -7.3777 -7.3725 -7.3673 -7.3621 -7.3569 -7.3517 -7.3517 -7.3413 -7.3361 -7.3309 -7.3257 -7.3093 -7.2898 -7.2967 -7.3349 -7.3732 -7.4114 -7.4496 -7.4878 -7.5261 -7.5643 -7.6025 -7.6916 -7.6916 -7.7759 -7.8601 -7.9263 -7.9832 -8.04 -8.0968 -8.1537 -8.2105 -8.2674 -8.3242 -8.3811 -8.4238 -8.4413 -8.4587 -8.4753 -8.4753 -8.4833 -8.4913 -8.4993 -8.5073 -8.5153 -8.5233 -8.5313 -8.5724 -8.6471 -8.7211 -8.7951 -8.8686 -8.942 -9.0155 -9.1624 -9.1624 -9.2359 -9.3094 -9.3828 -9.4599 -9.5392 -9.6185 -9.6867 -9.742 -9.7973 -9.8526 -9.9079 -9.9632 -10.018 -10.074 -10.183 -10.183 -10.237 -10.291 -10.345 -10.398 -10.452 -10.506 -10.559 -10.579 -10.595 -10.61 -10.626 -10.642 -10.693 -10.746 -10.799 -10.799 -10.906 -10.959 -11.012 -11.065 -11.119 -11.172 -11.225 -11.279 -11.286 -11.33 -11.395 -11.461 -11.526 -11.593 -11.671 -11.671 -11.826 -11.904 -11.982 -12.06 -12.138 -12.215 -12.24 -12.188 -12.21 -12.268 -12.327 -12.386 -12.444 -12.503 -12.562 -12.562 -12.679 -12.737 -12.796 -12.844 -12.868 -12.891 -12.936 -12.98 -13.025 -13.069 -13.114 -13.159 -13.203 -13.248 -13.293 -13.293 -13.382 -13.426 -13.455 -13.427 -13.4 -13.372 -13.344 -13.317 -13.289 -13.262 -13.234 -13.206 -13.179 -13.151 -13.123 -13.123 -13.061 -13.023 -13.002 -12.95 -12.898 -12.846 -12.794 -12.741 -12.689 -12.637 -12.585 -12.533 -12.481
-1.0206 -1.019 -1.0183 -1.0175 -1.0168 -1.016 -1.0153 -1.0145 -1.0138 -1.013 -1.0123 -1.0123 -0.98469 -0.96771 -0.95074 -0.94173 -0.94753 -0.95332 -0.95912 -0.96491 -0.97071 -0.97651 -0.9823 -0.9881 -0.99389 -1.0255 -1.0635 -1.0635 -1.1208 -1.1495 -1.1781 -1.2068 -1.2354 -1.2641 -1.2928 -1.3227 -1.353 -1.3833 -1.4137 -1.444 -1.4743 -1.5046 -1.535 -1.6056 -1.6056 -1.6596 -1.7135 -1.752 -1.7042 -1.6564 -1.6086 -1.5608 -1.5195 -1.4812 -1.443 -1.4047 -1.3664 -1.3281 -1.2898 -1.2132 -1.2132 -1.2414 -1.2766 -1.3119 -1.3471 -1.3824 -1.4176 -1.4529 -1.4835 -1.5112 -1.5389 -1.5666 -1.5943 -1.6221 -1.6426 -1.6524 -1.6524 -1.6573 -1.6622 -1.667 -1.6719 -1.6663 -1.6551 -1.6439 -1.6327 -1.6215 -1.6103 -1.5992 -1.6127 -1.6364 -1.66 -1.7073 -1.7073 -1.731 -1.7546 -1.776 -1.7968 -1.8176 -1.8384 -1.8591 -1.8799 -1.9008 -1.9225 -1.9441 -1.9658 -1.9874 -2.0091 -2.0525 -2.0525 -2.0745 -2.0964 -2.1184 -2.1403 -2.1622 -2.1842 -2.1895 -2.1756 -2.1616 -2.1477 -2.1338 -2.1198 -2.1059 -2.0961 -2.0918 -2.0918 -2.083 -2.0787 -2.0743 -2.07 -2.0764 -2.0869 -2.0974 -2.1078 -2.1183 -2.1287 -2.1392 -2.1502 -2.1615 -2.1728 -2.1841 -2.1841 -2.2066 -2.2196 -2.253 -2.2863 -2.3196 -2.3529 -2.3862 -2.4144 -2.4357 -2.4571 -2.4784 -2.4997 -2.521 -2.5424 -2.5637 -2.5637 -2.5618 -2.5569 -2.552 -2.5471 -2.5421 -2.5372 -2.5323 -2.5274 -2.5225 -2.5216 -2.5236 -2.5257 -2.5311 -2.5384 -2.5869 -2.5869 -2.7449 -2.824 -2.903 -2.982 -3.061 -3.1401 -3.2191 -3.2981 -3.3771 -3.4473 -3.5136 -3.5799 -3.6461 -3.7124 -3.7787 -3.9113 -3.9113 -3.9775 -4.0438 -4.1151 -4.1911 -4.2665 -4.3188 -4.3712 -4.4235 -4.4754 -4.5241 -4.5727 -4.6214 -4.6701 -4.7188 -4.8162 -4.8162 -4.8649 -4.9256 -4.9953 -5.0649 -5.1346 -5.2043 -5.2741 -5.3511 -5.4282 -5.5053 -5.5824 -5.6595 -5.7366 -5.8142 -5.9715 -5.9715 -6.0501 -6.1288 -6.2074 -6.286 -6.3647 -6.4433 -6.5219 -6.5932 -6.6608 -6.7189 -6.7283 -6.7391 -6.757 -6.775 -6.811 -6.811 -6.829 -6.847 -6.865 -6.883 -6.9009 -6.9189 -6.9431 -6.9731 -7.0031 -7.0331 -7.0631 -7.0931 -7.1231 -7.153 -7.2913 -7.2913 -7.6103 -7.7698 -7.9293 -8.0818 -8.2178 -8.3538 -8.4898 -8.6258 -8.7618 -8.8978 -9.0338 -9.1698 -9.3058 -9.4513 -9.6065 -9.6065 -9.6855 -9.5729 -9.4603 -9.3477 -9.235 -9.1224 -9.0098 -8.8972 -8.7845 -8.6719 -8.5593 -8.4931 -8.4174 -8.3329 -8.2483 -8.2483 -8.0791 -7.9945 -7.9099 -7.8254 -7.7408 -7.6562 -7.5716 -7.4863 -7.3528 -7.3425 -7.3373 -7.3321 -7.3269 -7.3217 -7.3165 -7.3165 -7.3061 -7.3009 -7.2957 -7.2905 -7.2816 -7.2688 -7.307 -7.3453 -7.3835 -7.4217 -7.4599 -7.4982 -7.5364 -7.5746 -7.6128 -7.6893 -7.6893 -7.764 -7.8389 -7.8957 -7.9526 -8.0094 -8.0663 -8.1231 -8.18 -8.2368 -8.2937 -8.3505 -8.4073 -8.4296 -8.4424 -8.4584 -8.4584 -8.4664 -8.4744 -8.4824 -8.4904 -8.4984 -8.5065 -8.5134 -8.5195 -8.5683 -8.6418 -8.7152 -8.7887 -8.8622 -8.9356 -9.0826 -9.0826 -9.156 -9.2295 -9.303 -9.382 -9.4613 -9.5406 -9.6199 -9.6865 -9.7418 -9.7971 -9.8524 -9.9077 -9.963 -10.018 -10.127 -10.127 -10.181 -10.235 -10.289 -10.342 -10.396 -10.45 -10.503 -10.557 -10.574 -10.59 -10.605 -10.631 -10.685 -10.738 -10.791 -10.791 -10.898 -10.951 -11.004 -11.057 -11.111 -11.164 -11.217 -11.271 -11.343 -11.42 -11.498 -11.576 -11.654 -11.732 -11.81 -11.81 -11.965 -12.043 -12.121 -12.199 -12.276 -12.354 -12.332 -12.28 -12.229 -12.283 -12.342 -12.401 -12.459 -12.518 -12.576 -12.576 -12.694 -12.752 -12.811 -12.836 -12.86 -12.883 -12.919 -12.964 -13.008 -13.053 -13.098 -13.142 -13.187 -13.232 -13.276 -13.276 -13.365 -13.41 -13.384 -13.356 -13.328 -13.3 -13.272 -13.245 -13.217 -13.19 -13.162 -13.134 -13.107 -13.079 -13.052 -13.052 -12.996 -12.969 -12.913 -12.864 -12.816 -12.768 -12.72 -12.672 -12.624 -12.575 -12.527 -12.479 -12.43
-1.0209 -1.0202 -1.0195 -1.0187 -1.018 -1.0172 -1.0165 -1.0157 -1.015 -1.0142 -1.0135 -1.0135 -0.99889 -0.98191 -0.96493 -0.96724 -0.97304 -0.97883 -0.98463 -0.99042 -0.99622 -1.002 -1.0078 -1.0136 -1.0194 -1.0293 -1.0579 -1.0579 -1.1153 -1.1439 -1.1726 -1.2012 -1.2299 -1.2586 -1.2872 -1.3169 -1.3472 -1.3776 -1.4079 -1.4382 -1.4686 -1.4989 -1.5292 -1.6339 -1.6339 -1.6879 -1.7419 -1.7845 -1.7367 -1.6889 -1.6411 -1.5932 -1.5454 -1.4976 -1.4557 -1.4174 -1.3791 -1.3409 -1.3026 -1.226 -1.226 -1.2521 -1.2874 -1.3226 -1.3579 -1.3931 -1.4262 -1.454 -1.4817 -1.5094 -1.5371 -1.5648 -1.5926 -1.6203 -1.6404 -1.6502 -1.6502 -1.655 -1.6599 -1.6648 -1.6697 -1.6746 -1.6795 -1.6693 -1.6581 -1.6469 -1.6357 -1.6245 -1.6394 -1.663 -1.6867 -1.734 -1.734 -1.756 -1.7768 -1.7975 -1.8183 -1.8391 -1.8599 -1.8807 -1.9014 -1.9224 -1.944 -1.9657 -1.9873 -2.009 -2.0306 -2.0739 -2.0739 -2.0955 -2.1175 -2.1394 -2.1613 -2.1833 -2.2052 -2.2095 -2.1955 -2.1816 -2.1677 -2.1537 -2.1413 -2.1369 -2.1325 -2.1282 -2.1282 -2.1194 -2.1151 -2.1107 -2.1063 -2.113 -2.1235 -2.134 -2.1444 -2.1549 -2.1653 -2.1758 -2.1862 -2.1967 -2.2079 -2.2192 -2.2192 -2.2418 -2.2547 -2.288 -2.3213 -2.3547 -2.388 -2.41 -2.4313 -2.4526 -2.474 -2.4953 -2.5166 -2.538 -2.5593 -2.5806 -2.5806 -2.5801 -2.5752 -2.5703 -2.5654 -2.5605 -2.5556 -2.5507 -2.5458 -2.5409 -2.536 -2.5311 -2.5294 -2.5344 -2.6081 -2.6871 -2.6871 -2.8452 -2.9242 -3.0032 -3.0822 -3.1613 -3.2403 -3.3193 -3.3983 -3.4774 -3.5488 -3.6151 -3.6813 -3.7476 -3.8139 -3.8802 -4.0127 -4.0127 -4.079 -4.1534 -4.2293 -4.3053 -4.3813 -4.4357 -4.488 -4.5404 -4.5927 -4.645 -4.6974 -4.7468 -4.7955 -4.8442 -4.9415 -4.9415 -4.9902 -5.0491 -5.1188 -5.1884 -5.2581 -5.3306 -5.4077 -5.4848 -5.5619 -5.639 -5.716 -5.7931 -5.8702 -5.9477 -6.105 -6.105 -6.1836 -6.2623 -6.3409 -6.4195 -6.4982 -6.5768 -6.6554 -6.7341 -6.8127 -6.8812 -6.8973 -6.9153 -6.9333 -6.9513 -6.9873 -6.9873 -7.0053 -7.0233 -7.0412 -7.0592 -7.0772 -7.0952 -7.1212 -7.1511 -7.1811 -7.2111 -7.2411 -7.2711 -7.3011 -7.3311 -7.3611 -7.3611 -7.6696 -7.8291 -7.9886 -8.1312 -8.2672 -8.4032 -8.5392 -8.6752 -8.8112 -8.9472 -9.0832 -9.2193 -9.3553 -9.4913 -9.6423 -9.6423 -9.5843 -9.4716 -9.359 -9.2464 -9.1338 -9.0211 -8.9085 -8.7959 -8.6833 -8.5706 -8.458 -8.3597 -8.2752 -8.1906 -8.106 -8.106 -7.9368 -7.8523 -7.7677 -7.6836 -7.6029 -7.5223 -7.4417 -7.361 -7.3231 -7.3174 -7.3116 -7.3058 -7.3 -7.2942 -7.2884 -7.2884 -7.2768 -7.271 -7.2652 -7.2594 -7.2536 -7.2798 -7.3174 -7.3556 -7.3938 -7.432 -7.4703 -7.5085 -7.5467 -7.5849 -7.6232 -7.6996 -7.6996 -7.7515 -7.8083 -7.8652 -7.922 -7.9789 -8.0357 -8.0926 -8.1494 -8.2062 -8.2631 -8.3199 -8.3768 -8.4175 -8.4256 -8.44 -8.44 -8.446 -8.4521 -8.4581 -8.4641 -8.4702 -8.4762 -8.4822 -8.4907 -8.5041 -8.5619 -8.6354 -8.7089 -8.7823 -8.8558 -9.0027 -9.0027 -9.0762 -9.1497 -9.2248 -9.3041 -9.3834 -9.4627 -9.542 -9.6213 -9.6863 -9.7416 -9.7969 -9.8522 -9.9075 -9.9628 -10.071 -10.071 -10.125 -10.179 -10.233 -10.286 -10.34 -10.394 -10.447 -10.501 -10.554 -10.569 -10.585 -10.623 -10.676 -10.73 -10.783 -10.783 -10.89 -10.943 -10.996 -11.059 -11.146 -11.234 -11.322 -11.41 -11.489 -11.559 -11.637 -11.715 -11.793 -11.871 -11.948 -11.948 -12.104 -12.182 -12.26 -12.337 -12.415 -12.475 -12.424 -12.372 -12.321 -12.298 -12.357 -12.415 -12.474 -12.533 -12.591 -12.591 -12.708 -12.767 -12.805 -12.828 -12.852 -12.875 -12.903 -12.947 -12.992 -13.037 -13.081 -13.126 -13.171 -13.215 -13.26 -13.26 -13.349 -13.34 -13.312 -13.284 -13.256 -13.228 -13.201 -13.173 -13.145 -13.118 -13.09 -13.063 -13.035 -13.007 -12.98 -12.98 -12.925 -12.878 -12.817 -12.763 -12.714 -12.666 -12.618 -12.57 -12.522 -12.474 -12.426 -12.378 -12.329
-1.0222 -1.0214 -1.0207 -1.0199 -1.0192 -1.0184 -1.0177 -1.0169 -1.0162 -1.0154 -1.0147 -1.0147 -1.0131 -0.99611 -0.98695 -0.99275 -0.99854 -1.0043 -1.0101 -1.0159 -1.0204 -1.0234 -1.0264 -1.0294 -1.0324 -1.0415 -1.0608 -1.0608 -1.1097 -1.1384 -1.167 -1.1957 -1.2244 -1.253 -1.2817 -1.3112 -1.3415 -1.3718 -1.4021 -1.4325 -1.4628 -1.5004 -1.5544 -1.6623 -1.6623 -1.7163 -1.7703 -1.8169 -1.7691 -1.7213 -1.6735 -1.6257 -1.5779 -1.5301 -1.4823 -1.4344 -1.3919 -1.3536 -1.3153 -1.2388 -1.2388 -1.2629 -1.2981 -1.3334 -1.3686 -1.3967 -1.4245 -1.4522 -1.4799 -1.5076 -1.5353 -1.5631 -1.5908 -1.6185 -1.6382 -1.6479 -1.6479 -1.6528 -1.6577 -1.6626 -1.6675 -1.6724 -1.6772 -1.6821 -1.6834 -1.6722 -1.661 -1.6498 -1.666 -1.6897 -1.7133 -1.7567 -1.7567 -1.7775 -1.7983 -1.819 -1.8398 -1.8606 -1.8814 -1.9022 -1.9229 -1.9439 -1.9656 -1.9872 -2.0089 -2.0305 -2.0521 -2.0954 -2.0954 -2.1171 -2.1387 -2.1604 -2.1824 -2.2043 -2.2263 -2.2294 -2.2155 -2.2016 -2.1876 -2.182 -2.1776 -2.1733 -2.1689 -2.1645 -2.1645 -2.1558 -2.1514 -2.1471 -2.1427 -2.1497 -2.1601 -2.1706 -2.181 -2.1915 -2.2019 -2.2124 -2.2229 -2.2333 -2.2438 -2.2543 -2.2543 -2.2769 -2.2898 -2.3231 -2.3564 -2.3843 -2.4056 -2.4269 -2.4482 -2.4696 -2.4909 -2.5122 -2.5336 -2.5549 -2.5762 -2.5975 -2.5975 -2.5985 -2.5936 -2.5887 -2.5838 -2.5789 -2.574 -2.5691 -2.5642 -2.5592 -2.5543 -2.5494 -2.563 -2.631 -2.7083 -2.7874 -2.7874 -2.9454 -3.0244 -3.1034 -3.1825 -3.2615 -3.3405 -3.4195 -3.4986 -3.5776 -3.6503 -3.7165 -3.7828 -3.8491 -3.9154 -3.9817 -4.1156 -4.1156 -4.1916 -4.2676 -4.3436 -4.4196 -4.4956 -4.5525 -4.6049 -4.6572 -4.7095 -4.7619 -4.8142 -4.8665 -4.9189 -4.9695 -5.0669 -5.0669 -5.1156 -5.1726 -5.2422 -5.3119 -5.3872 -5.4642 -5.5413 -5.6184 -5.6955 -5.7726 -5.8497 -5.9268 -6.0039 -6.0812 -6.2385 -6.2385 -6.3171 -6.3958 -6.4744 -6.5531 -6.6317 -6.7103 -6.789 -6.8676 -6.9435 -7.0107 -7.0637 -7.0916 -7.1096 -7.1276 -7.1635 -7.1635 -7.1815 -7.1995 -7.2175 -7.2355 -7.2535 -7.2715 -7.2992 -7.3292 -7.3592 -7.3892 -7.4192 -7.4491 -7.4791 -7.5091 -7.5391 -7.5391 -7.729 -7.8885 -8.0446 -8.1806 -8.3166 -8.4527 -8.5887 -8.7247 -8.8607 -8.9967 -9.1327 -9.2687 -9.4047 -9.5407 -9.6781 -9.6781 -9.483 -9.3775 -9.2722 -9.1669 -9.0617 -8.9564 -8.8511 -8.7458 -8.6406 -8.5353 -8.43 -8.3498 -8.2722 -8.1916 -8.1109 -8.1109 -7.9496 -7.869 -7.7884 -7.7077 -7.6271 -7.5464 -7.4658 -7.3983 -7.3886 -7.3824 -7.3766 -7.3708 -7.365 -7.3592 -7.3534 -7.3534 -7.3419 -7.3361 -7.3303 -7.3245 -7.3203 -7.3269 -7.3643 -7.4017 -7.4391 -7.4765 -7.5139 -7.5513 -7.5887 -7.6261 -7.6635 -7.7383 -7.7383 -7.7378 -7.7787 -7.8355 -7.8924 -7.9492 -8.006 -8.0629 -8.1197 -8.1765 -8.2334 -8.2902 -8.3471 -8.3862 -8.3967 -8.4088 -8.4088 -8.4148 -8.4208 -8.4269 -8.4329 -8.4389 -8.445 -8.451 -8.4626 -8.476 -8.4895 -8.5555 -8.629 -8.7025 -8.7759 -8.9229 -8.9229 -8.9963 -9.0698 -9.1469 -9.2262 -9.3055 -9.3848 -9.4641 -9.5434 -9.6227 -9.6861 -9.7414 -9.7967 -9.852 -9.9073 -10.015 -10.015 -10.069 -10.123 -10.177 -10.23 -10.284 -10.338 -10.391 -10.445 -10.499 -10.549 -10.564 -10.615 -10.668 -10.722 -10.775 -10.775 -10.948 -11.036 -11.124 -11.212 -11.299 -11.387 -11.475 -11.563 -11.636 -11.705 -11.776 -11.854 -11.931 -12.009 -12.087 -12.087 -12.243 -12.321 -12.398 -12.476 -12.554 -12.567 -12.516 -12.464 -12.413 -12.361 -12.371 -12.43 -12.489 -12.547 -12.606 -12.606 -12.723 -12.773 -12.797 -12.82 -12.844 -12.867 -12.89 -12.931 -12.976 -13.02 -13.065 -13.11 -13.154 -13.199 -13.243 -13.243 -13.297 -13.269 -13.241 -13.212 -13.184 -13.156 -13.129 -13.101 -13.074 -13.046 -13.018 -12.991 -12.963 -12.936 -12.908 -12.908 -12.843 -12.782 -12.721 -12.661 -12.613 -12.565 -12.517 -12.468 -12.42 -12.372 -12.324 -12.276 -12.228
-1.0234 -1.0226 -1.0219 -1.0211 -1.0204 -1.0196 -1.0189 -1.0181 -1.0174 -1.0167 -1.0159 -1.0159 -1.0144 -1.0103 -1.0125 -1.0167 -1.0197 -1.0228 -1.0258 -1.0288 -1.0318 -1.0348 -1.0378 -1.0408 -1.0438 -1.0552 -1.0745 -1.0745 -1.1132 -1.1328 -1.1615 -1.1902 -1.2188 -1.2475 -1.2761 -1.3054 -1.3357 -1.3661 -1.3964 -1.4267 -1.4748 -1.5287 -1.5827 -1.6907 -1.6907 -1.7447 -1.7986 -1.8493 -1.8015 -1.7537 -1.7059 -1.6581 -1.6103 -1.5625 -1.5147 -1.4669 -1.4191 -1.3713 -1.3281 -1.2515 -1.2515 -1.2736 -1.3089 -1.3395 -1.3672 -1.395 -1.4227 -1.4504 -1.4781 -1.5058 -1.5336 -1.5613 -1.589 -1.6167 -1.6359 -1.6457 -1.6457 -1.6506 -1.6555 -1.6604 -1.6652 -1.6701 -1.675 -1.6799 -1.6848 -1.6897 -1.6864 -1.6752 -1.6926 -1.7159 -1.7367 -1.7782 -1.7782 -1.799 -1.8198 -1.8406 -1.8613 -1.8821 -1.9029 -1.9237 -1.9445 -1.9655 -1.9871 -2.0087 -2.0304 -2.052 -2.0737 -2.117 -2.117 -2.1386 -2.1603 -2.1819 -2.2036 -2.2254 -2.2473 -2.2494 -2.2355 -2.2271 -2.2227 -2.2184 -2.214 -2.2096 -2.2053 -2.2009 -2.2009 -2.1922 -2.1878 -2.1834 -2.1791 -2.1863 -2.1967 -2.2072 -2.2176 -2.2281 -2.2385 -2.249 -2.2595 -2.2699 -2.2804 -2.2908 -2.2908 -2.312 -2.3248 -2.3582 -2.3798 -2.4012 -2.4225 -2.4438 -2.4652 -2.4865 -2.5078 -2.5291 -2.5505 -2.5718 -2.5931 -2.6145 -2.6145 -2.6169 -2.6119 -2.607 -2.6021 -2.5972 -2.5923 -2.5874 -2.5825 -2.5776 -2.5727 -2.61 -2.6699 -2.7361 -2.8131 -2.89 -2.89 -3.0456 -3.1247 -3.2037 -3.2827 -3.3617 -3.4407 -3.5198 -3.5988 -3.6778 -3.7517 -3.818 -3.8843 -3.9506 -4.0169 -4.0831 -4.2299 -4.2299 -4.3059 -4.3818 -4.4578 -4.5338 -4.6098 -4.6694 -4.7217 -4.774 -4.8264 -4.8787 -4.931 -4.9834 -5.0357 -5.088 -5.1922 -5.1922 -5.2409 -5.296 -5.3666 -5.4437 -5.5208 -5.5979 -5.675 -5.7521 -5.8291 -5.9062 -5.9833 -6.0604 -6.1375 -6.2148 -6.372 -6.372 -6.4507 -6.5293 -6.6079 -6.6866 -6.7652 -6.8438 -6.9225 -6.9937 -7.0618 -7.1294 -7.1824 -7.2353 -7.2859 -7.3038 -7.3398 -7.3398 -7.3578 -7.3758 -7.3938 -7.4118 -7.4298 -7.4477 -7.4772 -7.5072 -7.5372 -7.5672 -7.5972 -7.6272 -7.6572 -7.6872 -7.7172 -7.7172 -7.7884 -7.9479 -8.0941 -8.2301 -8.3661 -8.5021 -8.6381 -8.7741 -8.9101 -9.0429 -9.1733 -9.3037 -9.4341 -9.5645 -9.6431 -9.6431 -9.4792 -9.3739 -9.2687 -9.1634 -9.0581 -8.9528 -8.8476 -8.7423 -8.637 -8.5317 -8.4345 -8.3666 -8.2964 -8.2157 -8.1351 -8.1351 -7.9738 -7.8932 -7.8125 -7.7319 -7.6512 -7.5706 -7.49 -7.4655 -7.4558 -7.4475 -7.4417 -7.4359 -7.4301 -7.4243 -7.4185 -7.4185 -7.4069 -7.4011 -7.3953 -7.3897 -7.3879 -7.386 -7.4114 -7.4488 -7.4863 -7.5237 -7.5611 -7.5985 -7.6359 -7.6733 -7.7107 -7.7676 -7.7676 -7.7489 -7.7494 -7.8062 -7.863 -7.9199 -7.9767 -8.0336 -8.0904 -8.1472 -8.2041 -8.2609 -8.3125 -8.3404 -8.3655 -8.3776 -8.3776 -8.3836 -8.3896 -8.3957 -8.4017 -8.4077 -8.4137 -8.421 -8.4345 -8.4479 -8.4614 -8.4757 -8.5491 -8.6226 -8.6961 -8.843 -8.843 -8.9165 -8.9899 -9.069 -9.1483 -9.2276 -9.3069 -9.3862 -9.4655 -9.5448 -9.6241 -9.6859 -9.7412 -9.7965 -9.8518 -9.9593 -9.9593 -10.013 -10.067 -10.121 -10.174 -10.228 -10.282 -10.335 -10.389 -10.443 -10.497 -10.575 -10.662 -10.75 -10.838 -10.926 -10.926 -11.101 -11.189 -11.277 -11.365 -11.453 -11.54 -11.628 -11.713 -11.782 -11.851 -11.92 -11.992 -12.07 -12.148 -12.226 -12.226 -12.382 -12.459 -12.537 -12.615 -12.693 -12.659 -12.608 -12.556 -12.505 -12.453 -12.402 -12.445 -12.503 -12.562 -12.621 -12.621 -12.738 -12.765 -12.789 -12.812 -12.836 -12.859 -12.882 -12.915 -12.959 -13.004 -13.049 -13.093 -13.138 -13.182 -13.227 -13.227 -13.225 -13.197 -13.169 -13.141 -13.113 -13.085 -13.057 -13.029 -13.002 -12.974 -12.947 -12.919 -12.891 -12.864 -12.836 -12.836 -12.747 -12.686 -12.625 -12.564 -12.511 -12.463 -12.415 -12.367 -12.319 -12.271 -12.222 -12.174 -12.126
-1.0246 -1.0238 -1.0231 -1.0223 -1.0216 -1.0208 -1.0201 -1.0194 -1.0186 -1.0179 -1.0171 -1.0171 -1.0231 -1.0258 -1.0251 -1.0281 -1.0311 -1.0341 -1.0371 -1.0401 -1.0431 -1.0461 -1.0491 -1.0522 -1.0552 -1.0688 -1.0882 -1.0882 -1.1269 -1.1462 -1.1655 -1.1849 -1.2133 -1.242 -1.2706 -1.2997 -1.33 -1.3603 -1.3952 -1.4491 -1.5031 -1.5571 -1.6111 -1.719 -1.719 -1.773 -1.827 -1.881 -1.834 -1.7862 -1.7384 -1.6906 -1.6427 -1.5949 -1.5471 -1.4993 -1.4515 -1.4037 -1.3559 -1.2643 -1.2643 -1.2823 -1.31 -1.3377 -1.3655 -1.3932 -1.4209 -1.4486 -1.4763 -1.5041 -1.5318 -1.5595 -1.5872 -1.6149 -1.6337 -1.6435 -1.6435 -1.6484 -1.6533 -1.6581 -1.663 -1.6679 -1.6728 -1.6777 -1.6826 -1.6875 -1.6923 -1.6972 -1.7166 -1.7374 -1.7582 -1.7997 -1.7997 -1.8205 -1.8413 -1.8621 -1.8828 -1.9036 -1.9244 -1.9452 -1.966 -1.987 -2.0086 -2.0303 -2.0519 -2.0736 -2.0952 -2.1385 -2.1385 -2.1602 -2.1818 -2.2035 -2.2251 -2.2468 -2.2684 -2.2722 -2.2678 -2.2635 -2.2591 -2.2547 -2.2504 -2.246 -2.2417 -2.2373 -2.2373 -2.2286 -2.2242 -2.2198 -2.2155 -2.2229 -2.2333 -2.2438 -2.2542 -2.2647 -2.2752 -2.2856 -2.2961 -2.3065 -2.317 -2.3274 -2.3274 -2.3484 -2.3535 -2.3754 -2.3968 -2.4181 -2.4394 -2.4607 -2.4821 -2.5034 -2.5247 -2.5461 -2.5674 -2.5887 -2.61 -2.6314 -2.6314 -2.6352 -2.6303 -2.6254 -2.6205 -2.6156 -2.6107 -2.6058 -2.6009 -2.597 -2.657 -2.7169 -2.7768 -2.8413 -2.9182 -2.9952 -2.9952 -3.149 -3.2259 -3.3039 -3.3829 -3.4619 -3.541 -3.62 -3.699 -3.778 -3.8532 -3.9195 -3.9858 -4.0521 -4.1183 -4.1922 -4.3441 -4.3441 -4.4201 -4.4961 -4.5721 -4.6481 -4.724 -4.7862 -4.8385 -4.8909 -4.9432 -4.9955 -5.0479 -5.1002 -5.1525 -5.2049 -5.3096 -5.3096 -5.3619 -5.4233 -5.5003 -5.5774 -5.6544 -5.7315 -5.8086 -5.8857 -5.9628 -6.0399 -6.117 -6.194 -6.2711 -6.3483 -6.5055 -6.5055 -6.5842 -6.6628 -6.7414 -6.8201 -6.8987 -6.9757 -7.0439 -7.112 -7.1801 -7.248 -7.301 -7.354 -7.407 -7.4599 -7.5161 -7.5161 -7.5341 -7.5521 -7.57 -7.588 -7.606 -7.6253 -7.6553 -7.6853 -7.7153 -7.7453 -7.7752 -7.8052 -7.8352 -7.8652 -7.8952 -7.8952 -7.9552 -8.0072 -8.1427 -8.273 -8.4034 -8.5338 -8.6642 -8.7946 -8.925 -9.0554 -9.1858 -9.3162 -9.4466 -9.577 -9.5878 -9.5878 -9.4756 -9.3704 -9.2651 -9.1598 -9.0546 -8.9493 -8.844 -8.7387 -8.6335 -8.5282 -8.4513 -8.3833 -8.3154 -8.2399 -8.1592 -8.1592 -7.998 -7.9173 -7.8367 -7.756 -7.6754 -7.5948 -7.5425 -7.5327 -7.523 -7.5132 -7.5067 -7.5009 -7.4951 -7.4893 -7.4835 -7.4835 -7.472 -7.4662 -7.4604 -7.4573 -7.4555 -7.4536 -7.4586 -7.496 -7.5334 -7.5708 -7.6082 -7.6456 -7.683 -7.7204 -7.7578 -7.7787 -7.7787 -7.76 -7.7413 -7.7769 -7.8337 -7.8906 -7.9474 -8.0042 -8.0611 -8.1179 -8.1747 -8.2316 -8.2668 -8.2946 -8.3224 -8.3463 -8.3463 -8.3524 -8.3584 -8.3644 -8.3705 -8.3765 -8.3825 -8.3929 -8.4064 -8.4199 -8.4333 -8.4468 -8.4693 -8.5427 -8.6162 -8.7631 -8.7631 -8.8366 -8.9118 -8.9911 -9.0704 -9.1497 -9.229 -9.3083 -9.3876 -9.4669 -9.5462 -9.6254 -9.6857 -9.741 -9.7958 -9.9033 -9.9033 -9.957 -10.011 -10.065 -10.118 -10.172 -10.227 -10.329 -10.431 -10.533 -10.635 -10.728 -10.815 -10.903 -10.991 -11.079 -11.079 -11.254 -11.342 -11.43 -11.518 -11.606 -11.693 -11.781 -11.859 -11.928 -11.997 -12.066 -12.135 -12.209 -12.287 -12.365 -12.365 -12.52 -12.598 -12.676 -12.754 -12.802 -12.751 -12.699 -12.648 -12.597 -12.545 -12.494 -12.46 -12.518 -12.577 -12.635 -12.635 -12.734 -12.757 -12.781 -12.804 -12.828 -12.851 -12.874 -12.898 -12.943 -12.987 -13.032 -13.077 -13.121 -13.166 -13.21 -13.21 -13.154 -13.126 -13.097 -13.069 -13.041 -13.013 -12.985 -12.958 -12.93 -12.902 -12.875 -12.847 -12.82 -12.792 -12.764 -12.764 -12.65 -12.59 -12.529 -12.468 -12.409 -12.361 -12.313 -12.265 -12.217 -12.169 -12.121 -12.073 -12.025
-1.0258 -1.025 -1.0243 -1.0235 -1.0228 -1.022 -1.0213 -1.0242 -1.0274 -1.0307 -1.034 -1.034 -1.0405 -1.0423 -1.0409 -1.0396 -1.0425 -1.0455 -1.0485 -1.0515 -1.0545 -1.0575 -1.0605 -1.0635 -1.0665 -1.0825 -1.1018 -1.1018 -1.1405 -1.1599 -1.1792 -1.1985 -1.2179 -1.2372 -1.2651 -1.2939 -1.3242 -1.3696 -1.4235 -1.4775 -1.5315 -1.5855 -1.6394 -1.7474 -1.7474 -1.8014 -1.8554 -1.9093 -1.8664 -1.8186 -1.7708 -1.723 -1.6752 -1.6274 -1.5796 -1.5318 -1.4839 -1.4361 -1.3883 -1.3119 -1.3119 -1.2981 -1.3082 -1.336 -1.3637 -1.3914 -1.4191 -1.4468 -1.4746 -1.5023 -1.53 -1.5577 -1.5854 -1.6131 -1.6315 -1.6413 -1.6413 -1.6461 -1.651 -1.6559 -1.6608 -1.6657 -1.6706 -1.6755 -1.6803 -1.6852 -1.7132 -1.751 -1.7554 -1.7589 -1.7797 -1.8212 -1.8212 -1.842 -1.8628 -1.8836 -1.9043 -1.9251 -1.9459 -1.9667 -1.9875 -2.0085 -2.0302 -2.0518 -2.0735 -2.0951 -2.1168 -2.1601 -2.1601 -2.1817 -2.2034 -2.225 -2.2467 -2.2681 -2.2867 -2.2987 -2.3042 -2.2999 -2.2955 -2.2911 -2.2868 -2.2824 -2.278 -2.2737 -2.2737 -2.2649 -2.2606 -2.2562 -2.2518 -2.2595 -2.2699 -2.2804 -2.2908 -2.3013 -2.3118 -2.3222 -2.3327 -2.3431 -2.3536 -2.364 -2.364 -2.3699 -2.3679 -2.3905 -2.413 -2.435 -2.4563 -2.4777 -2.499 -2.5203 -2.5416 -2.563 -2.5843 -2.6056 -2.627 -2.6483 -2.6483 -2.6536 -2.6487 -2.6438 -2.6389 -2.6339 -2.629 -2.6241 -2.644 -2.7039 -2.7639 -2.8238 -2.8838 -2.9465 -3.0234 -3.1003 -3.1003 -3.2542 -3.3311 -3.408 -3.4849 -3.5622 -3.6412 -3.7202 -3.7992 -3.8783 -3.9547 -4.021 -4.0873 -4.1544 -4.2304 -4.3064 -4.4584 -4.4584 -4.5344 -4.6103 -4.6863 -4.7623 -4.8383 -4.903 -4.9554 -5.0077 -5.06 -5.1124 -5.1647 -5.217 -5.2694 -5.3217 -5.4264 -5.4264 -5.4905 -5.5589 -5.6352 -5.7115 -5.7881 -5.8652 -5.9423 -6.0193 -6.0964 -6.1735 -6.2506 -6.3277 -6.4048 -6.4819 -6.6391 -6.6391 -6.7177 -6.7963 -6.875 -6.9536 -7.0259 -7.0941 -7.1622 -7.2303 -7.2985 -7.3666 -7.4197 -7.4726 -7.5256 -7.5786 -7.6846 -7.6846 -7.7103 -7.7283 -7.7463 -7.7643 -7.7823 -7.8033 -7.8333 -7.8633 -7.8933 -7.9233 -7.9533 -7.9833 -8.0133 -8.0433 -8.0733 -8.0733 -8.1006 -8.1115 -8.1551 -8.2855 -8.4159 -8.5463 -8.6767 -8.8071 -8.9375 -9.0678 -9.1982 -9.3286 -9.459 -9.5631 -9.5325 -9.5325 -9.4713 -9.3668 -9.2615 -9.1563 -9.051 -8.9457 -8.8405 -8.7352 -8.6299 -8.536 -8.468 -8.4001 -8.3322 -8.264 -8.1834 -8.1834 -8.0221 -7.9415 -7.8608 -7.7802 -7.6995 -7.6195 -7.6097 -7.6 -7.5902 -7.5804 -7.5718 -7.566 -7.5602 -7.5544 -7.5486 -7.5486 -7.537 -7.5312 -7.5267 -7.5249 -7.523 -7.5212 -7.5193 -7.5431 -7.5805 -7.6179 -7.6553 -7.6927 -7.7301 -7.7676 -7.805 -7.7898 -7.7898 -7.7711 -7.7524 -7.7476 -7.8044 -7.8612 -7.9181 -7.9749 -8.0317 -8.0886 -8.1454 -8.1932 -8.221 -8.2488 -8.2766 -8.3151 -8.3151 -8.3211 -8.3272 -8.3332 -8.3392 -8.3453 -8.3514 -8.3648 -8.3783 -8.3918 -8.4052 -8.4187 -8.4322 -8.4629 -8.5363 -8.6833 -8.6833 -8.7567 -8.8339 -8.9132 -8.9925 -9.0718 -9.1511 -9.2304 -9.3097 -9.389 -9.4683 -9.5476 -9.6268 -9.6855 -9.7398 -9.8473 -9.8473 -9.901 -9.9779 -10.08 -10.182 -10.284 -10.386 -10.488 -10.59 -10.692 -10.793 -10.881 -10.968 -11.056 -11.144 -11.232 -11.232 -11.407 -11.495 -11.583 -11.671 -11.759 -11.846 -11.934 -12.005 -12.074 -12.143 -12.212 -12.281 -12.35 -12.426 -12.503 -12.503 -12.659 -12.737 -12.815 -12.893 -12.894 -12.843 -12.791 -12.74 -12.689 -12.637 -12.586 -12.534 -12.533 -12.592 -12.65 -12.65 -12.726 -12.749 -12.773 -12.796 -12.819 -12.843 -12.866 -12.89 -12.926 -12.971 -13.016 -13.06 -13.105 -13.15 -13.139 -13.139 -13.082 -13.054 -13.026 -12.998 -12.969 -12.941 -12.913 -12.886 -12.858 -12.831 -12.803 -12.775 -12.748 -12.72 -12.676 -12.676 -12.554 -12.493 -12.433 -12.372 -12.311 -12.26 -12.212 -12.163 -12.115 -12.067 -12.019 -11.971 -11.923
-1.027 -1.0262 -1.0255 -1.0285 -1.0317 -1.035 -1.0383 -1.0415 -1.0448 -1.0481 -1.0514 -1.0514 -1.0579 -1.0587 -1.0574 -1.056 -1.0547 -1.0568 -1.0599 -1.0629 -1.0659 -1.0689 -1.0719 -1.0749 -1.0779 -1.0962 -1.1155 -1.1155 -1.1542 -1.1735 -1.1929 -1.2122 -1.2315 -1.2509 -1.2702 -1.2902 -1.3439 -1.3979 -1.4519 -1.5059 -1.5599 -1.6138 -1.6678 -1.7758 -1.7758 -1.8297 -1.8837 -1.9377 -1.8988 -1.851 -1.8032 -1.7554 -1.7076 -1.6598 -1.612 -1.5642 -1.5164 -1.4686 -1.4316 -1.3788 -1.3788 -1.365 -1.3546 -1.3441 -1.3619 -1.3896 -1.4173 -1.4451 -1.4728 -1.5005 -1.5282 -1.5559 -1.5836 -1.6114 -1.6293 -1.639 -1.639 -1.6439 -1.6488 -1.6537 -1.6586 -1.6635 -1.6683 -1.6732 -1.6938 -1.7316 -1.7695 -1.8073 -1.8102 -1.8109 -1.8116 -1.8427 -1.8427 -1.8635 -1.8843 -1.9051 -1.9259 -1.9466 -1.9674 -1.9882 -2.009 -2.0301 -2.0517 -2.0734 -2.095 -2.1167 -2.1383 -2.1816 -2.1816 -2.2033 -2.2249 -2.2466 -2.2656 -2.2842 -2.3029 -2.3144 -2.3223 -2.3302 -2.3319 -2.3275 -2.3231 -2.3188 -2.3144 -2.31 -2.31 -2.3013 -2.2969 -2.2926 -2.2882 -2.2961 -2.3065 -2.317 -2.3275 -2.3379 -2.3484 -2.3588 -2.3693 -2.3797 -2.3902 -2.3906 -2.3906 -2.385 -2.3823 -2.4049 -2.4274 -2.45 -2.4726 -2.4946 -2.5159 -2.5372 -2.5586 -2.5799 -2.6012 -2.6225 -2.6439 -2.6652 -2.6652 -2.6719 -2.667 -2.6621 -2.6572 -2.6523 -2.6474 -2.6909 -2.7509 -2.8108 -2.8708 -2.9307 -2.9907 -3.0517 -3.1286 -3.2055 -3.2055 -3.3593 -3.4363 -3.5132 -3.5901 -3.667 -3.7439 -3.8208 -3.8995 -3.9785 -4.0562 -4.1225 -4.1927 -4.2687 -4.3447 -4.4206 -4.5726 -4.5726 -4.6486 -4.7246 -4.8006 -4.8766 -4.9525 -5.0199 -5.0722 -5.1245 -5.1769 -5.2292 -5.2815 -5.3339 -5.3862 -5.4386 -5.5596 -5.5596 -5.6271 -5.6946 -5.7707 -5.847 -5.9233 -5.9996 -6.0759 -6.153 -6.2301 -6.3072 -6.3842 -6.4613 -6.5384 -6.6155 -6.7726 -6.7726 -6.8512 -6.9298 -7.008 -7.0762 -7.1443 -7.2124 -7.2805 -7.3487 -7.4168 -7.4849 -7.5383 -7.5913 -7.6443 -7.6972 -7.8032 -7.8032 -7.8562 -7.9046 -7.9226 -7.9406 -7.9586 -7.9814 -8.0114 -8.0414 -8.0714 -8.1013 -8.1313 -8.1607 -8.1728 -8.1849 -8.197 -8.197 -8.2212 -8.2308 -8.2387 -8.2979 -8.4283 -8.5587 -8.6891 -8.8195 -8.9499 -9.0803 -9.2107 -9.3411 -9.4715 -9.5078 -9.4772 -9.4772 -9.416 -9.3633 -9.258 -9.1527 -9.0474 -8.9422 -8.8369 -8.7316 -8.6263 -8.5528 -8.4848 -8.4169 -8.3489 -8.281 -8.2075 -8.2075 -8.0463 -7.9656 -7.885 -7.8043 -7.7237 -7.6867 -7.6769 -7.6672 -7.6574 -7.6476 -7.6379 -7.631 -7.6252 -7.6194 -7.6136 -7.6136 -7.6021 -7.5963 -7.5943 -7.5924 -7.5906 -7.5887 -7.5869 -7.5903 -7.6277 -7.6651 -7.7025 -7.7399 -7.7773 -7.8147 -7.8384 -7.8009 -7.8009 -7.7822 -7.7635 -7.7448 -7.7751 -7.8319 -7.8888 -7.9456 -8.0024 -8.0593 -8.1161 -8.1474 -8.1752 -8.203 -8.2309 -8.2839 -8.2839 -8.2899 -8.296 -8.302 -8.308 -8.314 -8.3233 -8.3367 -8.3502 -8.3637 -8.3771 -8.3906 -8.4041 -8.4175 -8.4565 -8.6034 -8.6034 -8.6769 -8.756 -8.8353 -8.9146 -8.9939 -9.0732 -9.1525 -9.2318 -9.3111 -9.3904 -9.4697 -9.5489 -9.6282 -9.7285 -9.9324 -9.9324 -10.034 -10.136 -10.238 -10.34 -10.442 -10.544 -10.646 -10.748 -10.85 -10.946 -11.034 -11.122 -11.209 -11.297 -11.385 -11.385 -11.56 -11.648 -11.736 -11.824 -11.912 -11.999 -12.082 -12.151 -12.22 -12.289 -12.358 -12.427 -12.497 -12.566 -12.642 -12.642 -12.798 -12.876 -12.954 -13.031 -12.986 -12.935 -12.883 -12.832 -12.78 -12.729 -12.678 -12.626 -12.575 -12.606 -12.665 -12.665 -12.718 -12.741 -12.765 -12.788 -12.811 -12.835 -12.858 -12.882 -12.91 -12.955 -12.999 -13.044 -13.089 -13.095 -13.067 -13.067 -13.011 -12.982 -12.954 -12.926 -12.898 -12.87 -12.841 -12.814 -12.786 -12.759 -12.731 -12.703 -12.676 -12.641 -12.58 -12.58 -12.458 -12.397 -12.336 -12.276 -12.215 -12.158 -12.11 -12.062 -12.014 -11.966 -11.917 -11.869 -11.821
-1.036 -1.0393 -1.0426 -1.0459 -1.0491 -1.0524 -1.0557 -1.0589 -1.0622 -1.0655 -1.0687 -1.0687 -1.0753 -1.0751 -1.0738 -1.0724 -1.0711 -1.0698 -1.0712 -1.0742 -1.0772 -1.0802 -1.0832 -1.0862 -1.0905 -1.1098 -1.1292 -1.1292 -1.1678 -1.1872 -1.2065 -1.2259 -1.2452 -1.2648 -1.2902 -1.3159 -1.371 -1.4262 -1.4803 -1.5342 -1.5882 -1.6422 -1.6962 -1.8041 -1.8041 -1.8581 -1.9121 -1.9661 -1.9313 -1.8835 -1.8357 -1.7879 -1.74 -1.6922 -1.6444 -1.5966 -1.5513 -1.5249 -1.4985 -1.4457 -1.4457 -1.4319 -1.4215 -1.411 -1.4006 -1.3901 -1.4156 -1.4433 -1.471 -1.4987 -1.5264 -1.5541 -1.5819 -1.6096 -1.627 -1.6368 -1.6368 -1.6417 -1.6466 -1.6515 -1.6563 -1.6612 -1.6745 -1.7123 -1.7501 -1.788 -1.8258 -1.8636 -1.8649 -1.8656 -1.8663 -1.8678 -1.8678 -1.885 -1.9058 -1.9266 -1.9474 -1.9681 -1.9889 -2.0097 -2.0305 -2.0516 -2.0733 -2.0949 -2.1166 -2.1382 -2.1599 -2.2032 -2.2032 -2.2248 -2.2444 -2.2631 -2.2817 -2.3004 -2.3191 -2.3301 -2.338 -2.3459 -2.3538 -2.3616 -2.3595 -2.3552 -2.3508 -2.3464 -2.3464 -2.3377 -2.3333 -2.329 -2.3246 -2.3327 -2.3431 -2.3536 -2.3641 -2.3745 -2.385 -2.3954 -2.4059 -2.4113 -2.4085 -2.4057 -2.4057 -2.4001 -2.3973 -2.4192 -2.4418 -2.4644 -2.487 -2.5096 -2.5322 -2.5541 -2.5755 -2.5968 -2.6181 -2.6395 -2.6608 -2.6821 -2.6821 -2.6903 -2.6854 -2.6805 -2.6756 -2.6779 -2.7379 -2.7978 -2.8578 -2.9177 -2.9777 -3.0376 -3.0976 -3.1575 -3.2338 -3.3107 -3.3107 -3.4645 -3.5414 -3.6184 -3.6953 -3.7722 -3.8491 -3.926 -4.0029 -4.0799 -4.1577 -4.2309 -4.3069 -4.3829 -4.4589 -4.5349 -4.6869 -4.6869 -4.7628 -4.8388 -4.9148 -4.9908 -5.0668 -5.1367 -5.189 -5.2414 -5.2937 -5.346 -5.3984 -5.4507 -5.5031 -5.5612 -5.6961 -5.6961 -5.7636 -5.8311 -5.9062 -5.9825 -6.0588 -6.1351 -6.2114 -6.2877 -6.3639 -6.4408 -6.5179 -6.595 -6.6721 -6.7491 -6.9061 -6.9061 -6.9847 -7.0582 -7.1264 -7.1945 -7.2626 -7.3308 -7.3989 -7.467 -7.5351 -7.6033 -7.657 -7.7099 -7.7629 -7.8159 -7.9219 -7.9219 -7.9748 -8.0278 -8.0808 -8.1168 -8.1348 -8.1594 -8.1894 -8.2194 -8.245 -8.2571 -8.2691 -8.2812 -8.2933 -8.3054 -8.3175 -8.3175 -8.3417 -8.3501 -8.358 -8.3659 -8.4408 -8.5712 -8.7016 -8.832 -8.9624 -9.0927 -9.2231 -9.3535 -9.4831 -9.4525 -9.4219 -9.4219 -9.3607 -9.3302 -9.2544 -9.1492 -9.0439 -8.9386 -8.8333 -8.7281 -8.6375 -8.5695 -8.5016 -8.4336 -8.3657 -8.2978 -8.2298 -8.2298 -8.0704 -7.9898 -7.9091 -7.8285 -7.7637 -7.7539 -7.7441 -7.7344 -7.7246 -7.7148 -7.7051 -7.6961 -7.6903 -7.6845 -7.6787 -7.6787 -7.6671 -7.6637 -7.6619 -7.66 -7.6582 -7.6563 -7.6544 -7.6526 -7.6748 -7.7122 -7.7496 -7.787 -7.8244 -7.8618 -7.8495 -7.8121 -7.8121 -7.7933 -7.7746 -7.7559 -7.7458 -7.8026 -7.8594 -7.9163 -7.9731 -8.0299 -8.0738 -8.1016 -8.1294 -8.1573 -8.1851 -8.2408 -8.2408 -8.2587 -8.2647 -8.2708 -8.2768 -8.2828 -8.2952 -8.3086 -8.3221 -8.3356 -8.3491 -8.3625 -8.376 -8.3895 -8.4029 -8.5235 -8.5235 -8.5988 -8.6781 -8.7574 -8.8367 -8.916 -8.9953 -9.0746 -9.1539 -9.2492 -9.3632 -9.4772 -9.5913 -9.7226 -9.887 -10.091 -10.091 -10.193 -10.295 -10.397 -10.499 -10.601 -10.703 -10.805 -10.907 -11.009 -11.099 -11.187 -11.275 -11.362 -11.45 -11.538 -11.538 -11.714 -11.801 -11.889 -11.977 -12.065 -12.153 -12.228 -12.297 -12.366 -12.435 -12.504 -12.573 -12.643 -12.712 -12.781 -12.781 -12.937 -13.015 -13.092 -13.13 -13.078 -13.027 -12.975 -12.924 -12.872 -12.821 -12.77 -12.718 -12.667 -12.621 -12.663 -12.663 -12.71 -12.733 -12.757 -12.78 -12.803 -12.827 -12.85 -12.874 -12.897 -12.938 -12.983 -13.028 -13.052 -13.024 -12.995 -12.995 -12.939 -12.911 -12.883 -12.854 -12.826 -12.798 -12.77 -12.742 -12.714 -12.687 -12.659 -12.632 -12.604 -12.544 -12.484 -12.484 -12.362 -12.301 -12.24 -12.179 -12.119 -12.058 -12.008 -11.96 -11.912 -11.864 -11.816 -11.768 -11.72
-1.0534 -1.0567 -1.06 -1.0632 -1.0665 -1.0698 -1.073 -1.0763 -1.0796 -1.0828 -1.0861 -1.0861 -1.0927 -1.0916 -1.0902 -1.0889 -1.0875 -1.0862 -1.0849 -1.0856 -1.0886 -1.0916 -1.0946 -1.0976 -1.1041 -1.1235 -1.1428 -1.1428 -1.1815 -1.2008 -1.2202 -1.2395 -1.2648 -1.2901 -1.3155 -1.342 -1.3971 -1.4523 -1.5074 -1.5626 -1.6166 -1.6706 -1.7245 -1.8325 -1.8325 -1.8865 -1.9405 -1.9944 -1.9637 -1.9159 -1.8681 -1.8203 -1.7725 -1.7247 -1.6769 -1.6446 -1.6182 -1.5918 -1.5654 -1.5126 -1.5126 -1.4989 -1.4884 -1.478 -1.4675 -1.4571 -1.4466 -1.4415 -1.4692 -1.4969 -1.5246 -1.5524 -1.5801 -1.6078 -1.6248 -1.6346 -1.6346 -1.6395 -1.6443 -1.6492 -1.6551 -1.6929 -1.7308 -1.7686 -1.8065 -1.8443 -1.8821 -1.919 -1.9197 -1.9204 -1.9211 -1.9225 -1.9225 -1.9232 -1.9273 -1.9481 -1.9689 -1.9897 -2.0104 -2.0312 -2.052 -2.0732 -2.0948 -2.1165 -2.1381 -2.1598 -2.1814 -2.2232 -2.2232 -2.2419 -2.2606 -2.2792 -2.2979 -2.3166 -2.3353 -2.3459 -2.3538 -2.3616 -2.3695 -2.3774 -2.3852 -2.3915 -2.3872 -2.3828 -2.3828 -2.3741 -2.3697 -2.3653 -2.361 -2.3693 -2.3798 -2.3902 -2.4007 -2.4111 -2.4216 -2.432 -2.4292 -2.4264 -2.4236 -2.4208 -2.4208 -2.4152 -2.4124 -2.4336 -2.4562 -2.4788 -2.5014 -2.524 -2.5466 -2.5691 -2.5917 -2.6137 -2.635 -2.6564 -2.6777 -2.699 -2.699 -2.7087 -2.7037 -2.6988 -2.7249 -2.7848 -2.8448 -2.9047 -2.9647 -3.0246 -3.0846 -3.1445 -3.2045 -3.2644 -3.339 -3.4159 -3.4159 -3.5697 -3.6466 -3.7235 -3.8005 -3.8774 -3.9543 -4.0312 -4.1081 -4.1852 -4.2848 -4.3549 -4.4212 -4.4972 -4.5731 -4.6491 -4.8011 -4.8011 -4.8771 -4.9531 -5.0291 -5.105 -5.181 -5.2535 -5.3059 -5.3582 -5.4105 -5.4629 -5.5152 -5.5676 -5.6303 -5.6977 -5.8327 -5.8327 -5.9002 -5.9676 -6.0417 -6.118 -6.1943 -6.2706 -6.3469 -6.4232 -6.4995 -6.5758 -6.652 -6.7286 -6.8057 -6.8828 -7.0396 -7.0396 -7.1084 -7.1766 -7.2447 -7.3128 -7.381 -7.4491 -7.5172 -7.5853 -7.6535 -7.7216 -7.7756 -7.8286 -7.8816 -7.9345 -8.0405 -8.0405 -8.0935 -8.1465 -8.1995 -8.2524 -8.3054 -8.3292 -8.3413 -8.3534 -8.3655 -8.3776 -8.3897 -8.4018 -8.4139 -8.426 -8.4381 -8.4381 -8.4615 -8.4694 -8.4773 -8.4852 -8.4931 -8.5836 -8.714 -8.8444 -8.9748 -9.1052 -9.2356 -9.366 -9.4278 -9.3972 -9.3666 -9.3666 -9.3054 -9.2749 -9.2443 -9.1456 -9.0403 -8.9351 -8.8298 -8.7245 -8.6542 -8.5863 -8.5183 -8.4504 -8.3825 -8.3145 -8.2466 -8.2466 -8.0946 -8.0139 -7.9333 -7.8526 -7.8309 -7.8211 -7.8113 -7.8016 -7.7918 -7.782 -7.7723 -7.7625 -7.7553 -7.7495 -7.7437 -7.7437 -7.7331 -7.7313 -7.7294 -7.7276 -7.7257 -7.7239 -7.722 -7.7202 -7.722 -7.7594 -7.7968 -7.8342 -7.8716 -7.8793 -7.8606 -7.8232 -7.8232 -7.8045 -7.7858 -7.767 -7.7483 -7.7733 -7.8301 -7.887 -7.9438 -8.0002 -8.028 -8.0558 -8.0836 -8.1115 -8.1393 -8.195 -8.195 -8.2228 -8.2335 -8.2395 -8.2456 -8.2536 -8.2671 -8.2806 -8.294 -8.3075 -8.321 -8.3344 -8.3479 -8.3614 -8.3748 -8.4437 -8.4437 -8.5209 -8.6002 -8.6795 -8.7588 -8.8726 -8.9867 -9.1007 -9.2148 -9.3288 -9.4429 -9.5569 -9.6709 -9.8236 -9.9935 -10.249 -10.249 -10.351 -10.453 -10.555 -10.657 -10.759 -10.861 -10.963 -11.065 -11.165 -11.252 -11.34 -11.428 -11.516 -11.603 -11.691 -11.691 -11.867 -11.954 -12.042 -12.13 -12.218 -12.305 -12.374 -12.443 -12.512 -12.581 -12.65 -12.72 -12.789 -12.858 -12.927 -12.927 -13.076 -13.153 -13.231 -13.221 -13.17 -13.119 -13.067 -13.016 -12.964 -12.913 -12.861 -12.81 -12.738 -12.659 -12.656 -12.656 -12.702 -12.725 -12.749 -12.772 -12.795 -12.819 -12.842 -12.865 -12.889 -12.922 -12.967 -13.008 -12.98 -12.952 -12.924 -12.924 -12.867 -12.839 -12.811 -12.783 -12.755 -12.727 -12.698 -12.67 -12.643 -12.615 -12.587 -12.56 -12.509 -12.448 -12.388 -12.388 -12.266 -12.205 -12.144 -12.083 -12.022 -11.962 -11.907 -11.858 -11.81 -11.762 -11.714 -11.666 -11.624
-1.0708 -1.0741 -1.0773 -1.0806 -1.0839 -1.0872 -1.0904 -1.0937 -1.097 -1.1002 -1.1035 -1.1035 -1.1094 -1.108 -1.1067 -1.1053 -1.104 -1.1026 -1.1013 -1.1 -1.1 -1.103 -1.106 -1.109 -1.1178 -1.1371 -1.1565 -1.1565 -1.1952 -1.2145 -1.2394 -1.2647 -1.2901 -1.3154 -1.3408 -1.368 -1.4232 -1.4784 -1.5335 -1.5887 -1.6438 -1.6989 -1.7529 -1.8609 -1.8609 -1.9148 -1.9688 -2.0228 -1.9962 -1.9483 -1.9005 -1.8527 -1.8049 -1.7643 -1.7379 -1.7115 -1.6851 -1.6587 -1.6323 -1.5795 -1.5795 -1.5658 -1.5554 -1.5449 -1.5345 -1.524 -1.5136 -1.5031 -1.4927 -1.4951 -1.5229 -1.5506 -1.5783 -1.606 -1.6226 -1.6323 -1.6323 -1.6372 -1.6421 -1.6736 -1.7114 -1.7493 -1.7871 -1.8249 -1.8628 -1.9006 -1.9384 -1.9737 -1.9745 -1.9752 -1.9759 -1.9773 -1.9773 -1.978 -1.9787 -1.9794 -1.9904 -2.0112 -2.0319 -2.0527 -2.0735 -2.0947 -2.1164 -2.138 -2.1596 -2.1813 -2.2021 -2.2394 -2.2394 -2.2581 -2.2768 -2.2954 -2.3141 -2.3328 -2.3514 -2.3616 -2.3695 -2.3774 -2.3852 -2.3931 -2.401 -2.4088 -2.4167 -2.4192 -2.4192 -2.4104 -2.4061 -2.4017 -2.3974 -2.4059 -2.4164 -2.4268 -2.4373 -2.4477 -2.45 -2.4472 -2.4444 -2.4415 -2.4387 -2.4359 -2.4359 -2.4303 -2.4275 -2.448 -2.4706 -2.4932 -2.5158 -2.5384 -2.5609 -2.5835 -2.6061 -2.6287 -2.6513 -2.6733 -2.6946 -2.7159 -2.7159 -2.727 -2.7221 -2.7718 -2.8318 -2.8917 -2.9517 -3.0116 -3.0716 -3.1315 -3.1915 -3.2514 -3.3114 -3.3713 -3.4441 -3.5211 -3.5211 -3.6749 -3.7518 -3.8287 -3.9056 -3.9826 -4.0595 -4.1364 -4.2198 -4.3194 -4.419 -4.4934 -4.5596 -4.6259 -4.6921 -4.7634 -4.9153 -4.9153 -4.9913 -5.0673 -5.1433 -5.2193 -5.2953 -5.3704 -5.4227 -5.4751 -5.5274 -5.5797 -5.6321 -5.6993 -5.7668 -5.8343 -5.9692 -5.9692 -6.0367 -6.1042 -6.1773 -6.2535 -6.3298 -6.4061 -6.4824 -6.5587 -6.635 -6.7113 -6.7876 -6.8639 -6.9402 -7.0164 -7.1586 -7.1586 -7.2268 -7.2949 -7.363 -7.4312 -7.4993 -7.5674 -7.6356 -7.7037 -7.7718 -7.8399 -7.8943 -7.9472 -8.0002 -8.0532 -8.1592 -8.1592 -8.2121 -8.2651 -8.3181 -8.37 -8.4195 -8.447 -8.4619 -8.4739 -8.486 -8.4981 -8.5102 -8.5223 -8.5344 -8.5465 -8.5586 -8.5586 -8.5808 -8.5887 -8.5966 -8.6045 -8.6124 -8.6203 -8.7265 -8.8569 -8.9873 -9.1176 -9.248 -9.3784 -9.3725 -9.3419 -9.3113 -9.3113 -9.2501 -9.2196 -9.189 -9.142 -9.0368 -8.9315 -8.8262 -8.7389 -8.671 -8.603 -8.5351 -8.4672 -8.3992 -8.3313 -8.2633 -8.2633 -8.1187 -8.0381 -7.9574 -7.9079 -7.8981 -7.8883 -7.8786 -7.8688 -7.859 -7.8493 -7.8395 -7.8297 -7.8204 -7.8146 -7.8088 -7.8088 -7.8007 -7.7988 -7.797 -7.7951 -7.7933 -7.7914 -7.7896 -7.7877 -7.7859 -7.8065 -7.8439 -7.8813 -7.9091 -7.8904 -7.8717 -7.8343 -7.8343 -7.8156 -7.7969 -7.7782 -7.7595 -7.744 -7.8008 -7.8576 -7.9145 -7.9544 -7.9822 -8.01 -8.0379 -8.0657 -8.0935 -8.1492 -8.1492 -8.177 -8.2023 -8.2083 -8.2143 -8.2255 -8.239 -8.2525 -8.2659 -8.2794 -8.2929 -8.3063 -8.3198 -8.3333 -8.3467 -8.3873 -8.3873 -8.4961 -8.6101 -8.7242 -8.8382 -8.9523 -9.0663 -9.1804 -9.2944 -9.4085 -9.5225 -9.6366 -9.7548 -9.9246 -10.095 -10.408 -10.408 -10.51 -10.612 -10.714 -10.816 -10.918 -11.02 -11.122 -11.224 -11.318 -11.406 -11.493 -11.581 -11.669 -11.756 -11.844 -11.844 -12.02 -12.107 -12.195 -12.283 -12.371 -12.451 -12.52 -12.589 -12.658 -12.727 -12.797 -12.866 -12.935 -13.004 -13.073 -13.073 -13.214 -13.292 -13.365 -13.313 -13.262 -13.211 -13.159 -13.108 -13.052 -12.972 -12.892 -12.813 -12.733 -12.653 -12.652 -12.652 -12.697 -12.72 -12.742 -12.765 -12.788 -12.811 -12.834 -12.857 -12.881 -12.906 -12.95 -12.937 -12.909 -12.881 -12.852 -12.852 -12.796 -12.768 -12.74 -12.711 -12.683 -12.655 -12.627 -12.599 -12.571 -12.543 -12.516 -12.474 -12.413 -12.352 -12.291 -12.291 -12.17 -12.109 -12.048 -11.987 -11.926 -11.865 -11.805 -11.757 -11.709 -11.661 -11.612 -11.564 -11.538
-1.0708 -1.0741 -1.0773 -1.0806 -1.0839 -1.0872 -1.0904 -1.0937 -1.097 -1.1002 -1.1035 -1.1035 -1.1094 -1.108 -1.1067 -1.1053 -1.104 -1.1026 -1.1013 -1.1 -1.1 -1.103 -1.106 -1.109 -1.1178 -1.1371 -1.1565 -1.1565 -1.1952 -1.2145 -1.2394 -1.2647 -1.2901 -1.3154 -1.3408 -1.368 -1.4232 -1.4784 -1.5335 -1.5887 -1.6438 -1.6989 -1.7529 -1.8609 -1.8609 -1.9148 -1.9688 -2.0228 -1.9962 -1.9483 -1.9005 -1.8527 -1.8049 -1.7643 -1.7379 -1.7115 -1.6851 -1.6587 -1.6323 -1.5795 -1.5795 -1.5658 -1.5554 -1.5449 -1.5345 -1.524 -1.5136 -1.5031 -1.4927 -1.4951 -1.5229 -1.5506 -1.5783 -1.606 -1.6226 -1.6323 -1.6323 -1.6372 -1.6421 -1.6736 -1.7114 -1.7493 -1.7871 -1.8249 -1.8628 -1.9006 -1.9384 -1.9737 -1.9745 -1.9752 -1.9759 -1.9773 -1.9773 -1.978 -1.9787 -1.9794 -1.9904 -2.0112 -2.0319 -2.0527 -2.0735 -2.0947 -2.1164 -2.138 -2.1596 -2.1813 -2.2021 -2.2394 -2.2394 -2.2581 -2.2768 -2.2954 -2.3141 -2.3328 -2.3514 -2.3616 -2.3695 -2.3774 -2.3852 -2.3931 -2.401 -2.4088 -2.4167 -2.4192 -2.4192 -2.4104 -2.4061 -2.4017 -2.3974 -2.4059 -2.4164 -2.4268 -2.4373 -2.4477 -2.45 -2.4472 -2.4444 -2.4415 -2.4387 -2.4359 -2.4359 -2.4303 -2.4275 -2.448 -2.4706 -2.4932 -2.5158 -2.5384 -2.5609 -2.5835 -2.6061 -2.6287 -2.6513 -2.6733 -2.6946 -2.7159 -2.7159 -2.727 -2.7221 -2.7718 -2.8318 -2.8917 -2.9517 -3.0116 -3.0716 -3.1315 -3.1915 -3.2514 -3.3114 -3.3713 -3.4441 -3.5211 -3.5211 -3.6749 -3.7518 -3.8287 -3.9056 -3.9826 -4.0595 -4.1364 -4.2198 -4.3194 -4.419 -4.4934 -4.5596 -4.6259 -4.6921 -4.7634 -4.9153 -4.9153 -4.9913 -5.0673 -5.1433 -5.2193 -5.2953 -5.3704 -5.4227 -5.4751 -5.5274 -5.5797 -5.6321 -5.6993 -5.7668 -5.8343 -5.9692 -5.9692 -6.0367 -6.1042 -6.1773 -6.2535 -6.3298 -6.4061 -6.4824 -6.5587 -6.635 -6.7113 -6.7876 -6.8639 -6.9402 -7.0164 -7.1586 -7.1586 -7.2268 -7.2949 -7.363 -7.4312 -7.4993 -7.5674 -7.6356 -7.7037 -7.7718 -7.8399 -7.8943 -7.9472 -8.0002 -8.0532 -8.1592 -8.1592 -8.2121 -8.2651 -8.3181 -8.37 -8.4195 -8.447 -8.4619 -8.4739 -8.486 -8.4981 -8.5102 -8.5223 -8.5344 -8.5465 -8.5586 -8.5586 -8.5808 -8.5887 -8.5966 -8.6045 -8.6124 -8.6203 -8.7265 -8.8569 -8.9873 -9.1176 -9.248 -9.3784 -9.3725 -9.3419 -9.3113 -9.3113 -9.2501 -9.2196 -9.189 -9.142 -9.0368 -8.9315 -8.8262 -8.7389 -8.671 -8.603 -8.5351 -8.4672 -8.3992 -8.3313 -8.2633 -8.2633 -8.1187 -8.0381 -7.9574 -7.9079 -7.8981 -7.8883 -7.8786 -7.8688 -7.859 -7.8493 -7.8395 -7.8297 -7.8204 -7.8146 -7.8088 -7.8088 -7.8007 -7.7988 -7.797 -7.7951 -7.7933 -7.7914 -7.7896 -7.7877 -7.7859 -7.8065 -7.8439 -7.8813 -7.9091 -7.8904 -7.8717 -7.8343 -7.8343 -7.8156 -7.7969 -7.7782 -7.7595 -7.744 -7.8008 -7.8576 -7.9145 -7.9544 -7.9822 -8.01 -8.0379 -8.0657 -8.0935 -8.1492 -8.1492 -8.177 -8.2023 -8.2083 -8.2143 -8.2255 -8.239 -8.2525 -8.2659 -8.2794 -8.2929 -8.3063 -8.3198 -8.3333 -8.3467 -8.3873 -8.3873 -8.4961 -8.6101 -8.7242 -8.8382 -8.9523 -9.0663 -9.1804 -9.2944 -9.4085 -9.5225 -9.6366 -9.7548 -9.9246 -10.095 -10.408 -10.408 -10.51 -10.612 -10.714 -10.816 -10.918 -11.02 -11.122 -11.224 -11.318 -11.406 -11.493 -11.581 -11.669 -11.756 -11.844 -11.844 -12.02 -12.107 -12.195 -12.283 -12.371 -12.451 -12.52 -12.589 -12.658 -12.727 -12.797 -12.866 -12.935 -13.004 -13.073 -13.073 -13.214 -13.292 -13.365 -13.313 -13.262 -13.211 -13.159 -13.108 -13.052 -12.972 -12.892 -12.813 -12.733 -12.653 -12.652 -12.652 -12.697 -12.72 -12.742 -12.765 -12.788 -12.811 -12.834 -12.857 -12.881 -12.906 -12.95 -12.937 -12.909 -12.881 -12.852 -12.852 -12.796 -12.768 -12.74 -12.711 -12.683 -12.655 -12.627 -12.599 -12.571 -12.543 -12.516 -12.474 -12.413 -12.352 -12.291 -12.291 -12.17 -12.109 -12.048 -11.987 -11.926 -11.865 -11.805 -11.757 -11.709 -11.661 -11.612 -11.564 -11.538
-1.0985 -1.0915 -1.0947 -1.098 -1.1013 -1.1045 -1.1078 -1.1111 -1.1143 -1.1176 -1.1209 -1.1209 -1.1258 -1.1245 -1.1231 -1.1218 -1.1204 -1.1191 -1.1177 -1.1164 -1.1151 -1.1143 -1.1173 -1.1203 -1.1315 -1.1508 -1.1701 -1.1701 -1.214 -1.2393 -1.2647 -1.2901 -1.3154 -1.3408 -1.3661 -1.3941 -1.4493 -1.5044 -1.5596 -1.6148 -1.6699 -1.7251 -1.7802 -1.8892 -1.8892 -1.9432 -1.9972 -2.0512 -2.0286 -1.9808 -1.933 -1.8852 -1.8576 -1.8312 -1.8048 -1.7784 -1.752 -1.7256 -1.6992 -1.6464 -1.6464 -1.6328 -1.6223 -1.6119 -1.6014 -1.591 -1.5805 -1.5701 -1.5596 -1.5492 -1.5387 -1.5488 -1.5765 -1.6042 -1.6203 -1.6301 -1.6301 -1.6542 -1.6921 -1.7299 -1.7677 -1.8056 -1.8434 -1.8813 -1.9191 -1.9569 -1.9948 -2.0285 -2.0292 -2.0299 -2.0306 -2.0321 -2.0321 -2.0328 -2.0335 -2.0342 -2.0349 -2.0356 -2.0534 -2.0742 -2.095 -2.1162 -2.1379 -2.1595 -2.1809 -2.1996 -2.2182 -2.2556 -2.2556 -2.2743 -2.2929 -2.3116 -2.3303 -2.3489 -2.3676 -2.3774 -2.3852 -2.3931 -2.401 -2.4088 -2.4167 -2.4246 -2.4324 -2.4403 -2.4403 -2.4468 -2.4425 -2.4381 -2.4337 -2.4425 -2.453 -2.4634 -2.4707 -2.4679 -2.4651 -2.4623 -2.4595 -2.4566 -2.4538 -2.451 -2.451 -2.4454 -2.4426 -2.4624 -2.485 -2.5076 -2.5302 -2.5528 -2.5753 -2.5979 -2.6205 -2.6431 -2.6657 -2.6883 -2.7108 -2.7329 -2.7329 -2.7589 -2.8188 -2.8787 -2.9387 -2.9986 -3.0586 -3.1185 -3.1785 -3.2384 -3.2984 -3.3583 -3.4183 -3.4782 -3.5493 -3.6262 -3.6262 -3.7801 -3.857 -3.9339 -4.0108 -4.0877 -4.1647 -4.2543 -4.3539 -4.4536 -4.5532 -4.6319 -4.6982 -4.7644 -4.8306 -4.8968 -5.0296 -5.0296 -5.1056 -5.1816 -5.2576 -5.3335 -5.4095 -5.4855 -5.5396 -5.5919 -5.6442 -5.7009 -5.7684 -5.8359 -5.9034 -5.9708 -6.1058 -6.1058 -6.1732 -6.2407 -6.3128 -6.3891 -6.4654 -6.5417 -6.6179 -6.6942 -6.7705 -6.8468 -6.9231 -6.9994 -7.0757 -7.1406 -7.2764 -7.2764 -7.3451 -7.4132 -7.4814 -7.5495 -7.6176 -7.6858 -7.7539 -7.822 -7.8902 -7.9583 -8.0129 -8.0659 -8.1189 -8.1718 -8.2778 -8.2778 -8.3308 -8.3836 -8.4331 -8.4826 -8.5321 -8.5561 -8.5791 -8.5945 -8.6066 -8.6187 -8.6308 -8.6429 -8.6549 -8.667 -8.6791 -8.6791 -8.7002 -8.708 -8.7159 -8.7238 -8.7317 -8.7396 -8.7474 -8.8693 -8.9997 -9.1301 -9.2605 -9.3478 -9.3172 -9.2866 -9.256 -9.256 -9.1949 -9.1643 -9.1337 -9.1031 -9.0332 -8.9279 -8.8236 -8.7557 -8.6877 -8.6198 -8.5519 -8.4839 -8.416 -8.348 -8.2801 -8.2801 -8.1429 -8.0622 -7.9848 -7.9751 -7.9653 -7.9555 -7.9458 -7.936 -7.9262 -7.9165 -7.9067 -7.8969 -7.8872 -7.8796 -7.8739 -7.8739 -7.8683 -7.8664 -7.8646 -7.8627 -7.8609 -7.859 -7.8572 -7.8553 -7.8534 -7.8536 -7.891 -7.9284 -7.9202 -7.9015 -7.8828 -7.8454 -7.8454 -7.8267 -7.808 -7.7893 -7.7706 -7.7519 -7.7715 -7.8283 -7.8808 -7.9086 -7.9364 -7.9643 -7.9921 -8.0199 -8.0477 -8.1034 -8.1034 -8.1312 -8.1591 -8.1771 -8.184 -8.1974 -8.2109 -8.2244 -8.2378 -8.2513 -8.2652 -8.3001 -8.335 -8.3698 -8.4047 -8.4933 -8.4933 -8.5758 -8.6898 -8.8038 -8.9179 -9.0319 -9.146 -9.26 -9.3741 -9.4881 -9.6022 -9.7162 -9.8558 -10.026 -10.196 -10.535 -10.535 -10.668 -10.77 -10.872 -10.974 -11.076 -11.178 -11.28 -11.382 -11.471 -11.559 -11.646 -11.734 -11.822 -11.91 -11.997 -11.997 -12.173 -12.26 -12.348 -12.436 -12.524 -12.597 -12.666 -12.735 -12.804 -12.874 -12.943 -13.012 -13.081 -13.15 -13.219 -13.219 -13.357 -13.431 -13.457 -13.405 -13.354 -13.285 -13.206 -13.126 -13.046 -12.967 -12.887 -12.807 -12.728 -12.648 -12.647 -12.647 -12.692 -12.715 -12.737 -12.76 -12.783 -12.805 -12.828 -12.851 -12.873 -12.896 -12.894 -12.865 -12.837 -12.809 -12.781 -12.781 -12.724 -12.696 -12.668 -12.64 -12.612 -12.583 -12.555 -12.527 -12.499 -12.471 -12.439 -12.378 -12.317 -12.256 -12.195 -12.195 -12.074 -12.013 -11.952 -11.891 -11.83 -11.769 -11.709 -11.655 -11.607 -11.559 -11.511 -11.478 -11.453
-1.1428 -1.127 -1.1121 -1.1154 -1.1186 -1.1219 -1.1252 -1.1285 -1.1317 -1.135 -1.1383 -1.1383 -1.1423 -1.1409 -1.1396 -1.1382 -1.1369 -1.1355 -1.1342 -1.1328 -1.1315 -1.1301 -1.1288 -1.1317 -1.1451 -1.1645 -1.1886 -1.1886 -1.2393 -1.2647 -1.29 -1.3154 -1.3407 -1.3661 -1.3914 -1.4202 -1.4754 -1.5305 -1.5857 -1.6408 -1.696 -1.7512 -1.8063 -1.9166 -1.9166 -1.9716 -2.0256 -2.0795 -2.061 -2.0132 -1.9773 -1.9509 -1.9245 -1.8981 -1.8717 -1.8453 -1.8189 -1.7925 -1.7661 -1.7133 -1.7133 -1.6997 -1.6893 -1.6788 -1.6684 -1.6579 -1.6475 -1.637 -1.6266 -1.6161 -1.6057 -1.5952 -1.5848 -1.6025 -1.6181 -1.6727 -1.6727 -1.7106 -1.7484 -1.7862 -1.8241 -1.8619 -1.8997 -1.9376 -1.9754 -2.0132 -2.0511 -2.0833 -2.084 -2.0847 -2.0854 -2.0868 -2.0868 -2.0875 -2.0882 -2.0889 -2.0897 -2.0904 -2.0911 -2.0957 -2.1165 -2.1378 -2.1594 -2.1784 -2.1971 -2.2158 -2.2344 -2.2718 -2.2718 -2.2904 -2.3091 -2.3278 -2.3464 -2.3651 -2.3838 -2.3931 -2.401 -2.4088 -2.4167 -2.4246 -2.4324 -2.4403 -2.4482 -2.456 -2.456 -2.4718 -2.4788 -2.4745 -2.4701 -2.4791 -2.4896 -2.4886 -2.4858 -2.483 -2.4802 -2.4774 -2.4746 -2.4718 -2.4689 -2.4661 -2.4661 -2.4605 -2.4577 -2.4768 -2.4994 -2.522 -2.5446 -2.5672 -2.5897 -2.6123 -2.6349 -2.6575 -2.6801 -2.7026 -2.7252 -2.7478 -2.7478 -2.8658 -2.9257 -2.9857 -3.0456 -3.1056 -3.1655 -3.2254 -3.2854 -3.3453 -3.4053 -3.4652 -3.5252 -3.5851 -3.6545 -3.7314 -3.7314 -3.8853 -3.9622 -4.0391 -4.116 -4.1929 -4.2889 -4.3885 -4.4881 -4.5878 -4.6874 -4.7705 -4.8367 -4.9029 -4.9691 -5.0353 -5.1677 -5.1677 -5.2339 -5.3001 -5.3718 -5.4478 -5.5238 -5.5998 -5.6564 -5.7087 -5.77 -5.8375 -5.9049 -5.9724 -6.0399 -6.1074 -6.2423 -6.2423 -6.3098 -6.3772 -6.4483 -6.5246 -6.6009 -6.6772 -6.7535 -6.8298 -6.906 -6.9823 -7.0586 -7.1348 -7.1949 -7.2551 -7.3897 -7.3897 -7.4601 -7.5305 -7.5997 -7.6678 -7.736 -7.8041 -7.8722 -7.9404 -8.0085 -8.0766 -8.1316 -8.1845 -8.2375 -8.2905 -8.3965 -8.3965 -8.4467 -8.4962 -8.5457 -8.5952 -8.6422 -8.6652 -8.6882 -8.7113 -8.7271 -8.7392 -8.7513 -8.7634 -8.7755 -8.7876 -8.7997 -8.7997 -8.8195 -8.8273 -8.8352 -8.8431 -8.851 -8.8589 -8.8668 -8.8818 -9.0122 -9.1425 -9.2729 -9.2925 -9.2619 -9.2313 -9.2007 -9.2007 -9.1396 -9.109 -9.0784 -9.0478 -9.0172 -8.9244 -8.8404 -8.7725 -8.7045 -8.6366 -8.5686 -8.5007 -8.4327 -8.3648 -8.2969 -8.2969 -8.161 -8.0864 -8.052 -8.0423 -8.0325 -8.0227 -8.013 -8.0032 -7.9934 -7.9837 -7.9739 -7.9641 -7.9544 -7.9447 -7.9395 -7.9395 -7.9358 -7.934 -7.9321 -7.9303 -7.9284 -7.9266 -7.9247 -7.9229 -7.921 -7.9192 -7.9382 -7.9501 -7.9314 -7.9126 -7.8939 -7.8565 -7.8565 -7.8378 -7.8191 -7.8004 -7.7817 -7.763 -7.7443 -7.799 -7.835 -7.8628 -7.8906 -7.9185 -7.9463 -7.9741 -8.002 -8.0576 -8.0576 -8.0855 -8.1133 -8.1411 -8.1559 -8.178 -8.2129 -8.2478 -8.2826 -8.3175 -8.3524 -8.3873 -8.4221 -8.457 -8.4919 -8.5994 -8.5994 -8.6819 -8.7694 -8.8835 -8.9975 -9.1116 -9.2256 -9.3397 -9.4537 -9.5678 -9.6818 -9.7959 -9.9568 -10.127 -10.297 -10.636 -10.636 -10.806 -10.929 -11.031 -11.133 -11.235 -11.337 -11.439 -11.536 -11.624 -11.712 -11.8 -11.887 -11.975 -12.063 -12.15 -12.15 -12.326 -12.414 -12.501 -12.589 -12.674 -12.743 -12.812 -12.881 -12.95 -13.02 -13.089 -13.158 -13.227 -13.296 -13.365 -13.365 -13.504 -13.567 -13.519 -13.439 -13.36 -13.28 -13.2 -13.121 -13.041 -12.961 -12.882 -12.802 -12.722 -12.642 -12.642 -12.642 -12.687 -12.71 -12.733 -12.755 -12.778 -12.801 -12.823 -12.846 -12.869 -12.853 -12.812 -12.785 -12.758 -12.732 -12.705 -12.705 -12.651 -12.625 -12.596 -12.568 -12.54 -12.512 -12.484 -12.455 -12.427 -12.4 -12.342 -12.282 -12.221 -12.16 -12.099 -12.099 -11.977 -11.917 -11.856 -11.795 -11.734 -11.673 -11.612 -11.554 -11.505 -11.457 -11.418 -11.392 -11.367
